# 3D point list with one line of data per point:
#   POINT3D_ID, X, Y, Z, R, G, B, ERROR, TRACK[] as (IMAGE_ID, POINT2D_IDX)
# Number of points: 390, mean track length: 4.0466408893185113
711 -0.030622795355255347 1.6085100341744945 0.26556314111090296 198 196 199 0.88546508127692003 13 141 14 533 12 290 11 149 10 178 9 316 5 255 4 220 3 397 16 850 8 167 7 207 1 649 2 324
1061 0.8289735345910908 2.494791147792697 -0.16359044161796021 165 123 169 0.60131227573251245 13 904 12 579 11 691
1886 0.56487137821503619 0.8967360726926169 0.57774015264565837 252 244 233 2.8547475470292518 18 732 19 271
713 -0.022325502801863125 1.6193640635482027 0.26330609628542617 122 118 136 0.88133403332514804 13 142 14 537 12 292 9 141 6 109 5 189 4 223 7 148 2 840
1371 -0.2994431806717513 1.2016043289228526 0.71753417100809158 223 214 209 0.46113596558867681 8 561 7 488 6 497 5 239 4 203 3 390
715 0.60289553994060974 1.5789262836691009 0.21744401861313006 101 111 148 0.36490610706885579 17 213 14 543 12 523 11 523 13 434 18 470
3113 -0.37993185950111408 1.4505556977227829 0.86229847357784728 188 179 182 1.3566120674703221 6 283 5 186 4 71
2083 0.7759253824960376 1.0122276084571828 0.60255993454248546 198 153 160 1.510293159420024 19 489 20 1025 22 663 23 637 28 861 25 438
717 -0.022333626834175588 1.7719486422410282 0.32691005111266686 132 118 149 1.1303296359577726 13 159 14 550 12 298 11 154 10 186 9 160 6 236 5 182 4 234 7 108 3 298
3922 0.42607532703200268 0.85861266669897285 0.56845593011944728 246 218 209 1.3603245699771787 28 549 27 318 25 366
718 -0.020151347455435772 1.8080521480061824 0.3426378057480049 119 105 139 0.75134991905053894 13 162 14 553 12 300 11 156 10 190 9 180 8 106 7 111 6 231 5 162 4 237
1884 0.52355270622351235 0.88386739761847721 0.5803097703716279 255 243 235 0.40481998517970047 21 547 19 267 20 249
719 -0.024760928192856153 1.8217093479591484 0.35231043801803491 169 158 172 0.86905065973621975 13 164 14 554 12 301 10 191 9 337 8 107 7 356 6 620
721 0.61628873572728271 1.7728160201575502 0.28151753817490932 153 150 169 0.25994445839928632 13 590 17 403 14 562 12 496 11 836 10 749
722 0.256562725445381 1.8367439643631955 0.24506727625711586 184 173 179 0.21858396150882703 16 625 14 563 12 502 13 721
723 0.16754163244733714 1.948121561785509 0.34719398653118883 178 162 177 1.2832328087299403 13 318 14 566 12 509 11 275 10 227 9 411 7 517 6 735
726 0.3209443901721144 0.8319367510390393 0.67757933398939241 252 249 236 0.79704191164050708 13 539 14 575 12 588 11 299 10 468 9 606 8 407
3495 -0.019099516632069078 1.7021857122704334 0.28442559342945956 190 179 187 0.27323167911807944 3 293 2 330 1 655
1956 0.11128344725093106 1.2629626839046555 0.22699954674259529 200 195 191 0.2130239711892542 21 346 22 647
727 0.18475394786535024 0.84596762011785465 0.67589573772902833 235 236 223 0.18939505119345479 16 788 14 576 12 621
1077 0.10357768577796203 2.1760946989225278 0.82197985588070221 126 98 130 1.4048830020464833 13 92 10 423
729 0.2738799872466105 0.8627759291577779 0.64145432573031969 255 255 236 0.40808346962415487 16 486 14 583 12 202
1451 1.0076414969835268 1.3292853301363015 0.75275415244328958 188 176 178 1.155357967336953 18 119 15 90 21 81 19 144 20 94 28 77 27 250 24 251 17 571
730 0.13450264792691285 0.90094927811392544 0.57721209723957545 223 170 170 0.85480977277352832 13 552 17 629 14 593 12 603 11 506 10 519 9 634 8 593
734 0.16136499054787734 0.95183507823910163 0.46415165025645277 203 199 200 0.032288623504075992 17 643 12 363
735 -0.15514509427158435 0.99849592774466112 1.2178045356311218 197 194 201 1.0189340631242509 14 626 11 361
1910 0.80320574697606706 0.99478081203335522 0.98499826546578195 192 187 167 0.78102168729784605 21 710 19 393 20 650 22 339 23 387 28 280 27 242 24 322 26 528 25 109
737 0.36541550667999267 0.98002203048585412 0.39265292987353423 122 136 165 0.32824939045685153 13 745 14 639 12 669
1395 0.11111771003358399 1.0455095483248578 0.36215167906326806 254 254 246 0.39872827267078859 10 571 9 528
738 0.14487024108610694 1.0407482670761083 0.35852083565106163 232 230 215 0.64928697227036025 13 358 14 651 12 690
739 0.81911230906189569 0.99053357910487128 1.0428511913444973 213 207 209 0.44789133369325157 12 684 15 262
741 0.40519651936609985 1.0717502567611323 0.30819263886464365 222 223 218 0.48928929802939403 17 1112 14 669 12 994 13 785
742 0.43276283728907844 1.084778486273752 0.30542288899233172 181 196 217 0.61717206306173455 16 759 14 674 12 403 13 362 11 359 10 574 9 721 7 807
1918 1.0352005331054677 1.5413042021347261 0.83454861521259649 143 76 108 1.0954020062699734 21 597 19 422 20 1012 22 443 23 467 28 958 25 486
745 0.46166743374375108 1.126150665849273 0.28292424441799147 126 140 167 0.2321197494362694 13 802 14 687 12 714 11 688
747 0.48391856572901948 1.1586513791483373 0.26724796919359717 191 203 215 0.68424516088615106 16 779 14 700 12 726 13 821 11 847
3960 0.71145876856611268 1.4664515939794283 1.462551085706264 165 157 165 1.0866238136070121 25 31 27 43 24 41 26 27 30 33 29 49
749 0.51095794565838104 1.1819813065769691 0.25992015796563822 174 181 189 0.33996279603086749 16 784 12 730 11 693 10 597
750 0.025424617548067074 1.2323683759605204 0.29199038547806022 225 226 224 1.4261387609816392 13 921 14 708 11 350
1916 1.0343220886209592 1.5008777931074606 0.83021717344445667 155 87 119 0.62754776823097436 21 447 19 417 20 616 22 301 23 437 28 400
751 0.46853999347009129 1.1838122989083397 0.24962063835083378 135 148 172 0.43337838691202929 16 557 14 709 12 602
1862 1.0313056847320716 1.4275320128199336 0.84750820856534226 183 178 175 0.15123635218020151 18 232 19 146
753 0.94532442661840388 1.1927403158787031 0.68290862219291992 175 136 144 0.67573902613320858 17 152 14 722 18 58 15 79 21 44
1347 0.48195660714797506 2.0115467595768859 0.37777369900348295 159 135 159 1.0867253491786721 10 18 9 34
754 0.51615440087335296 1.2339172392741127 0.23917872311449109 157 173 199 0.32350364332504683 17 771 14 725 18 840 21 803
755 -0.011595686791350337 1.3259662661179044 0.27109850820808906 207 206 204 1.030704819671636 13 266 14 734 12 435 11 230 10 365
757 0.99782879181968032 1.2902879267323615 0.74200838403397895 172 134 147 0.49984535410537817 16 163 14 744 12 433
758 1.0026678000814306 1.3055373064201965 0.75244784029696998 170 130 148 1.465989519319264 16 474 14 745 18 62 21 46 19 48 20 56 22 55 23 43
3399 -0.00503179865112687 2.3766587348977719 0.54571658065143425 125 82 135 0.26401247121422772 4 803 3 661 2 735
1860 0.66174182206837018 0.95066787895050531 0.57451457687620211 235 230 221 0.7790418286041727 21 214 19 134 18 125
759 1.0136541867806499 1.3440038190714123 0.77815161944234856 166 123 143 1.4110710643274667 16 337 14 752 18 380 21 365 20 307 22 310 23 422 25 325
1870 0.44979851491177519 1.1447945853717736 0.25880028870300292 219 218 214 0.79169145372838501 18 182 19 207
761 0.24234772738597551 1.1331308553148118 0.27385013261577995 248 246 233 0.12478910468377857 13 807 14 767 12 711
762 0.52870530410498184 1.4140712134182853 0.18904249573762433 107 122 153 0.17345185348048459 13 950 14 768
763 -0.030622113275033266 1.5414283136277653 0.26432140785729724 192 190 191 1.471247925048081 13 144 14 776 12 287
3912 0.5919441274517685 1.3932166073168284 1.5205331113350411 177 167 177 0.60360699603037571 28 632 27 256 24 136 30 284 29 166 25 303 26 139 33 120 34 162 31 145 32 177
765 -0.013325369042924287 1.6064276755129943 0.25662848784744713 193 189 190 0.96599892798747433 13 290 16 1119 14 781 12 469 11 245 10 321 9 390 6 245
766 -0.029070848830701625 1.6682004349276567 0.27945084243108431 131 123 144 0.50339338509994225 13 442 16 620 14 790 12 478 11 404 10 325 9 392 8 373 7 903 6 900
767 0.60809610670575553 1.5913853895974859 0.22250704946004346 155 159 177 2.3110894222434419 17 847 14 793
768 -0.016159931325849624 1.7035285509528473 0.28470010544403285 184 175 186 1.161612699981732 13 295 14 794 12 482 11 150 10 173 9 327 8 145 7 80 6 130 4 229
770 -0.033629570959450662 1.7287756616474403 0.30758493241031126 171 161 177 1.4987416446817921 13 588 16 613 14 796 12 793 11 615 9 187
1202 0.68080227399098014 2.1593332525024196 0.90099588911538142 131 96 135 0.78816391442919409 13 326 11 442
771 0.56396823372091043 1.6408174416800054 0.21377424850681462 167 166 171 1.397769891721806 13 584 16 614 14 797 12 787
772 -0.026140505696883864 1.7557888672705564 0.3206165153050482 120 106 129 1.6862676457840118 13 300 11 254 10 183 9 333 8 173 6 239 5 264 4 232 3 297 12 488 7 250 2 260
774 -0.015549651769705564 1.8276553869337688 0.35196389705491643 125 109 146 0.55601337701125042 13 310 14 809 12 495 11 191 9 339 7 357 6 305 5 434
1182 0.69954836371099216 2.4205338100793661 0.13525713285121224 135 93 143 0.2943488622975684 13 986 11 760
775 -0.0075682355312382517 1.8286321688981546 0.34906333708116705 171 157 174 1.436568727242912 13 456 14 810 11 486 9 404 6 446
3254 -0.015921542073692358 1.5488366422060373 0.25032656582415241 190 189 191 0.44457916945586401 4 526 3 393 2 568 5 416
776 -0.010092977724793284 1.841001018909961 0.35946592104394909 129 112 144 0.75369526825043087 13 166 11 161 10 105
778 -0.0058847098209257702 1.8620228236231888 0.37049329923414454 124 107 139 0.35368178167895548 16 895 14 817 12 306
1210 0.41916538859042113 1.05155305225225 0.3323503257573916 149 165 191 1.6959707717803993 11 29 10 28 9 21 8 33 7 29 6 45
779 -0.0046626858776431341 1.8721946204418456 0.37206003228596785 168 149 169 2.0299155200304879 13 313 14 820 12 817 11 163 10 194
1727 0.54092916848891603 1.4963699689109295 0.18750899792983736 193 191 192 1.3917331476273955 18 53 21 83 19 85 20 297
780 0.59286785697473565 1.7862571206985833 0.27775567734884082 70 78 124 0.82286705816163774 16 629 14 824 12 497
1721 0.55628890598854408 1.5523281394970903 0.19109504855067236 186 181 185 1.0564905877495387 21 47 19 47 20 96
782 0.60860013471510199 1.7892115324589752 0.27306770176018391 122 125 166 0.87135329856989652 14 827 12 1006 11 543
783 0.21404356183555193 1.8564653007693745 0.21705932100007821 187 176 184 1.8130393844065074 13 459 14 831
784 0.014857549600604598 1.938495781085124 0.4257074634243852 134 111 137 0.86457920739602467 13 733 14 833 12 832 11 424 10 226 9 413 8 188
786 0.038731393449302473 1.9749034249260067 0.44916399327397105 166 144 167 0.53699392450235395 13 124 14 839 12 317 11 125 10 107
787 0.4084691519356356 1.9030886753948624 0.28592967555877452 181 169 179 0.18968383599743235 13 607 16 923 14 842
1154 0.42462436260069819 1.9518128401968819 0.32487786143609548 170 152 168 0.033288911265377655 13 621 11 569
1671 -0.012334411806920227 0.93363043944130686 0.62376728765359424 248 228 226 0.74109035481247643 18 626 15 509 21 620 17 290
788 0.26240155287265537 1.94197189404908 0.31588666875550087 181 167 180 0.64611167888950272 16 637 14 844 12 321 11 272 10 215 8 271 9 409 7 630
789 0.44677438616895454 1.932578409164633 0.31566488325319303 174 158 169 0.13669648160576178 13 735 14 848 12 850
790 0.57660430506567617 1.9263909206410628 0.35663051357296388 76 74 124 0.68636292462549464 16 643 14 850 11 556
791 0.46998290950315186 1.9387615266712279 0.3267993997906008 175 159 170 0.27047038716799127 17 912 14 851 12 852
792 0.55349640721622373 1.9335363383059372 0.34913493239657484 154 141 167 0.30450410832196856 17 918 14 853 12 851
793 0.76808548236660501 1.9422938715005746 0.52930008810389806 175 153 174 1.1137579139515486 17 939 14 854 18 999
794 0.55456419073289653 1.9412298188564268 0.35496555227922871 95 85 114 1.0067457004840976 13 614 16 940 14 856 12 853 11 559
795 0.8012376305331641 3.8411910197212666 8.2897989136394088 148 106 152 0.87664117235559724 16 964 14 857
1162 0.3452657526177545 0.99272699356678695 0.37887949495474099 156 167 189 0.26359367956647539 13 407 11 644 10 689
1673 1.1550293299990166 2.0228092138041984 1.2230489509421996 133 91 140 0.1008049100123182 17 972 15 527
798 0.60102920861346298 1.9714082081429829 0.41272365021889168 170 151 170 0.47226447195752524 13 622 16 961 14 866 12 515 11 834
799 0.46875270268450797 1.997892833520029 0.38030905089960076 168 147 165 0.59022785479892359 16 959 14 874 12 521
800 0.69636603630250393 2.0134814788759798 0.54439598563950709 154 128 153 0.44409838004609181 16 405 14 880 12 519
801 0.41987227304536529 2.0436112427743995 0.41646657134450149 165 143 164 0.16138240802448275 13 657 14 882 12 880
802 1.1989213831082699 2.1998030172914307 0.64016681380281171 172 135 178 0.61176311319410281 13 951 17 1050 14 899 12 901
3532 0.034567724575058703 1.1835713798102225 0.30240156824487219 230 226 225 0.43788419650462407 4 664 2 569
2509 0.59231919885078776 0.91991130193688386 0.582611156298252 246 242 231 2.1082620007219206 23 128 28 148 25 43
803 1.1950198048245264 2.2042456136380477 0.63695120414228068 129 89 134 0.31639510531692067 16 1015 14 900 12 903
1106 0.071959934644687029 2.0930479448602459 0.59003812932204136 103 77 124 0.44736322173186766 13 489 11 281 10 206
2502 0.62238795762705323 1.9307076120668254 1.346477209831237 132 106 135 0.38004544884017311 23 53 28 88
1623 0.47320170243142096 1.1306954991215818 0.2767471308621422 206 214 217 0.6602838988363533 18 245 15 266 21 347 19 387 20 1013 22 832
804 1.907324134175159 2.0950509775360193 0.69033803005365513 158 120 163 0.56633911349421218 16 425 14 901
1617 0.40404311019773681 1.0029143310448421 0.37258629584894426 224 226 224 0.29837494694200623 18 398 15 253 21 428
1472 0.82991332731737166 1.98034300186818 0.65481925694197807 157 131 156 1.8994136097092038 16 397 18 298
806 1.3601183912111277 2.2277411042166739 0.48731678013022989 177 140 183 0.10115096677122073 16 1049 14 913
2497 0.12678051038724808 0.90271318313480819 1.2023472323516176 213 209 206 1.4721484492220753 23 340 28 51
807 0.58702130345104442 1.7977803367032967 0.27990193931713697 127 133 165 0.69538986129301295 13 985 14 922 12 813 11 544 10 644
3158 0.13297997240841122 0.99255383168320255 0.42166644881184739 248 246 239 0.87576454586765184 6 454 5 552 4 593
808 -0.67275769515944916 2.638795009910972 0.35383157110430707 162 123 168 2.1887980932865636 16 1006 12 584
3675 -0.31723185757050826 1.7829373566774331 0.96810669541411931 148 130 145 0.71916552994874794 3 446 1 513 38 884
810 0.29273951338294796 2.0447565281407099 -0.85880111849990337 147 110 153 2.000305058870067 16 982 14 934
811 0.039076819972060431 2.4871415152758445 0.17498669840423783 181 144 187 0.91658528327021715 16 1129 14 935 12 562
1114 -0.024241197263029406 0.95824100464645523 0.59283032567354765 223 147 159 0.52022849421427286 13 573 11 317 10 148 9 118 8 128 7 53 6 52
1631 0.58169491261675177 1.9642070469339874 0.39697311512052219 90 82 133 0.29488759333627507 18 1060 15 316
812 -0.216597423248275 2.5321363036182549 0.12948005368261289 148 110 155 0.7887935678964455 13 894 16 422 14 938
1625 0.8521991347366058 1.2729412129827138 1.2844008006991725 198 189 194 2.8710853510349654 18 115 15 273
1480 1.025877486415061 1.6357303663859593 0.88655305076615876 178 156 168 1.3184091845811667 17 864 18 349 15 299 21 155 19 154 20 158 22 144 23 112 28 236 27 306
814 0.92154063782622408 2.8527823221071835 1.5692344392682231 163 126 169 0.50330032777218725 13 850 14 941
2839 -0.25187744685617652 1.1261394970120702 0.70673728566941985 196 144 154 0.28694130204791585 9 769 7 481 6 414 5 229 4 193 3 167
815 0.7850521448811606 2.3790562329819873 0.23329440017883321 128 86 136 0.5985158237558883 13 799 14 944 12 971
816 1.0048960161414213 2.3587386810283384 0.20186238503106826 121 83 130 0.17111132523047198 13 844 14 951 12 554
817 0.44999023878406519 2.0571258750975723 0.44008754356004115 156 132 156 0.34715408695997452 13 658 14 954 12 888
818 0.96453348781444848 2.3945887378832276 0.1231517157168113 134 95 142 0.16338823171893685 16 1097 14 960
3548 -0.21135255475619033 2.0062111395199791 1.6755624219806136 146 107 154 0.6495209396079934 3 841 1 748 2 666
3757 -0.35106970370506563 1.689480330710496 0.96781819839952732 156 97 127 1.2234014489299978 1 105 40 113 38 145 35 253 36 186 37 149
2525 0.69258815106545035 1.4396308067997743 1.474911095840223 159 148 164 1.433796659148872 23 424 28 191 27 165 24 296 30 560 29 611 26 273 25 214
1186 0.71437244693981861 2.4506788261534518 0.032946963969486133 134 95 142 0.41653912304909529 13 885 11 771 10 747
819 0.5752966002590153 1.6843679342375422 0.23096505020733649 82 88 118 0.51143906829198837 17 385 14 965 18 483
2518 0.67814050134720594 1.1285479887377001 1.359896600424304 126 121 153 0.19592438931030565 23 406 28 172 24 120
1703 0.023831151819039439 1.065796434504783 0.11702243245199936 117 78 131 0.36038864161501971 15 4 21 3
820 0.92832232986788443 2.4268312492152115 0.025564568525961395 158 117 161 0.10951782183429884 16 1103 14 970
1166 0.44993562754959798 1.1021702302433702 0.29456156030610553 148 163 184 0.20709351372539811 13 793 11 684 10 582
823 1.2613608110327159 2.4158851336267824 -0.073111339129395866 149 103 150 0.29984572236652679 13 888 14 980 12 578 11 471 10 445
2522 0.68780435344347013 1.1758827964556 1.3868024987770469 115 108 141 0.078025122704211303 23 409 28 178
824 -0.094022911401874742 2.4860564071297855 0.2245990273704252 145 103 151 0.47158763945178295 13 875 16 1023 14 988 12 956 11 779
3755 0.053602649291498383 1.3117695351424359 1.5041636043032893 176 165 178 1.267789197888302 1 490 40 101 39 75 38 43
826 0.45934687325318574 2.0175473370798613 0.39950815716959825 171 153 169 0.291615266228829 16 855 14 993 12 1013
1194 -0.019817658576005679 1.5857751134759321 0.25632280566876947 109 103 140 0.65204906224602255 13 138 12 149 11 160 16 606 14 314 10 95 9 140 8 137 7 143 6 106 4 218
827 0.17962770829896316 0.89257022301579381 0.59034011244297047 255 246 228 1.1602216390407796 13 373 14 996 12 638 11 306 10 261 9 244 7 467 6 425 5 654
828 0.88451920181622223 1.02239135656471 0.85023141793554424 217 201 207 0.055136195408519655 16 64 10 561
1503 0.90512640352542428 1.8114101402483147 0.6032820015549093 173 160 170 0.40201135204801081 16 918 18 523 15 590 21 481
1496 0.60209982366629589 1.5269423342512909 0.21018779322473619 98 107 143 1.1846409717416211 16 348 18 465 21 406
831 1.6073683515810586 1.2868445331929144 -2.1807445652081414 156 119 163 0.043219066610956335 16 681 14 1036
832 0.36770169539915948 1.9512235323982174 0.31966903837501442 185 167 181 0.47644975577884657 16 931 14 1037 10 711
1266 1.215834755572107 2.2204833553629686 0.55698318716009543 156 114 162 0.1793866737171908 11 284 10 420
835 0.87689765356521276 1.0879760984530995 0.68496782682659585 221 220 208 0.59400984166455639 14 76 12 245
1783 0.95565002816711675 1.2099509388570007 0.69579845890284087 180 128 136 1.2013681677778263 18 804 21 423 20 296 22 317 23 411 28 176 25 237
836 0.018708537631380837 0.95128238991548142 0.58885024919309736 234 233 215 2.2692027934561385 16 134 11 71 13 63
837 0.8847704441438784 1.9295751342298739 0.77157072213747413 159 129 157 0.5049496455110084 16 37 14 141
840 -0.6955322911853602 2.7010935474178805 -0.1858967050337518 171 133 176 0.73799196576025539 16 1062 14 398
841 -0.0067683941707596066 1.3779691404525372 0.25643689581376716 213 212 208 0.37297895190004099 13 274 14 508 12 443 11 176
842 0.16205911054234728 0.9515114221261104 0.4615664075686885 205 201 208 0.55783506409932515 13 567 14 612 11 312 10 275 9 231
843 0.073541956334990582 1.0737004170633975 0.37104029033781988 238 236 228 0.082888309602663884 14 657 12 240
1791 1.0144049562745623 1.6609274527387121 0.94884636606649886 167 151 164 0.56708574604214523 18 1108 21 461 19 323 20 335 22 281 23 213 27 461
844 0.87909903293304648 1.0507913706148999 0.93975965841411069 206 203 202 2.1619071036370272 16 294 12 400 14 470
1785 0.61275690189550713 0.92647467544998807 0.56292506567753653 242 232 223 0.89751625686404479 18 756 21 429 20 862
846 0.26057816412303514 2.1520714721510599 0.60313529756419537 131 99 137 0.6418732613258471 17 61 14 751
847 0.28094130047451377 2.1839705692965738 0.68405559117893966 122 90 127 1.7726764702595956 16 409 14 780 12 337
1059 0.56779166374933421 1.6712340714068576 0.23126823893377349 164 163 169 0.90616783872044493 14 1016 12 484 15 573
1218 0.62568341780326153 1.6372504994521719 0.23733305451906 180 174 178 0.72483727545040999 12 35 10 63
851 0.36705616202786484 0.92846190071368984 0.46190761963929583 247 245 229 2.5703827880735091 13 25 12 22 11 22
1729 0.52753382795041459 0.95521774736549148 1.2951579715340646 173 139 178 1.2597207161881363 18 404 21 105
854 0.56871633785608988 2.0991939634160866 0.57125790890609385 123 92 123 1.6861994077960571 13 35 12 32 10 109 9 423 11 60
3111 4.5128865924547688 2.9134308668464066 3.5766266314062314 117 107 134 0.14755239677116352 6 964 5 183
858 0.40743895897508159 1.0920782838307337 0.30072292461240174 231 228 216 1.217820386020543 13 34 12 44 10 52
1226 0.12737036477024913 1.0145980827098127 0.39545141781851745 180 173 205 0.37662206940507764 11 104 10 113 9 152
859 0.61783769226197505 1.8693864332875063 0.33144241043701844 165 153 165 0.38473749124374573 14 49 12 48
1737 1.1572220542164422 2.3365573469169996 0.23322711234885787 152 110 158 0.29546966169901745 18 204 21 173
862 0.062209466017763948 2.1419730072265923 0.74006897061267962 144 118 147 0.75651123651706487 13 329 12 54
1580 0.5674973990436023 1.8773471410484799 0.31489988819122433 84 84 134 0.99813689182286325 17 117 15 99 21 466
863 0.49715832320123621 1.2322676245123476 0.2335635804687122 110 126 162 0.54670652510413631 13 75 14 79 12 58 11 153 10 163 9 287
864 0.97400518655508039 1.2325398616663814 1.0281282721645131 199 189 191 0.99470394114721472 16 566 12 59
865 0.11849610555197705 1.0498644967385795 0.39071514765309073 255 252 235 0.881981146482258 13 58 12 61 11 67
866 0.32254796812492942 0.93762988707707096 0.45425901701145199 135 148 176 0.43373735668648389 13 64 14 58 12 63 11 141 9 147
867 0.63410640123170503 1.0227044985823504 0.43421589651004655 252 250 235 1.1625695131276643 14 116 12 67
1170 0.37250084867527222 2.132933168417817 0.61790075163857239 142 116 145 0.74975794987405009 13 497 10 534
868 0.0070595085972967016 1.2424135806587535 0.27746855216542815 223 221 209 2.2955750927324474 13 56 14 77 12 73 10 304 11 218 9 793
1681 1.030074331011315 1.6213969937160526 0.88082494469753536 172 152 164 0.55726946558352808 18 1112 15 574 20 893
870 0.57044206617575122 2.0075272494058805 0.43460168312921865 53 49 108 0.24528202554826636 13 131 12 83 11 186
871 0.057392757907239626 2.0863532732158956 0.55715938054321568 125 82 134 2.0498923691913746 13 69 12 85
3222 -0.35717665442389535 1.541832680590856 1.0528453338055752 194 184 193 0.21235326028609294 5 430 4 240
872 0.59397848671717246 0.9748442520807673 0.47483522032947573 232 228 216 0.081300981152072405 14 165 12 100
3739 -0.33768618754717111 1.7008788124090184 1.0005718119487332 163 152 158 1.8107791949484899 1 24 40 21 38 44 37 65 36 82
875 0.3483424803996335 0.92188665083564669 0.47128792724990914 249 248 227 0.61376869747032736 13 212 12 115 11 114 10 262 9 243 8 511 7 464 6 740 5 532 4 558
1695 0.55661197714073829 1.8436323596998787 0.29680167383502531 161 148 171 1.6534599004699055 17 1136 15 645 21 458 18 341
876 0.60405242325176056 0.90561111372849856 0.60392999343330478 235 229 215 0.93000617008893272 13 191 12 117 11 305 10 472
1689 0.60190908437011792 0.92453461126074832 0.57119728772830891 231 180 181 0.8325865292154766 18 753 15 615 21 672 19 580
878 0.31593464682740846 0.97093933171541491 0.40045504756485062 233 232 224 0.5385713031754914 13 223 14 243 12 124 11 383
879 0.76301837048855181 0.95022982480980378 0.95657210041783136 206 202 198 1.6421505189863619 16 124 12 125
882 -0.014436472938444189 1.3656159295206616 0.26289074428847803 153 150 171 0.66846048078442555 13 156 12 137 11 85 10 184 9 127 8 122 7 192 6 94 5 198 4 197
1250 2.1017751673948881 2.3693798863079336 -0.17126434308212582 175 137 181 0.067276914330613807 11 287 10 248
883 0.57638156360692028 1.4342459831854018 0.20527498849271092 117 130 156 0.53004904189269852 13 283 12 144 10 311 8 448 7 875 9 1048
886 0.43162175617213461 1.0751552191381466 0.31414271271271493 147 162 191 0.38487420363740066 13 148 14 269 12 156
887 0.57629767265705012 1.9836987797569192 0.41258188664552248 71 67 123 0.45285984403313417 13 320 12 166 11 271
3302 -0.38018460412253618 1.4324817835083188 0.82339031115750028 200 179 184 0.81220650873553646 3 814 2 335 1 489 4 883 5 878 40 422 37 590 36 587
888 0.096888477251768107 1.0377052750698099 0.37962073135625019 249 246 231 1.4130963031650026 13 123 12 177 11 123 10 158 9 266
890 0.34056041294381678 0.9386295404950622 0.44117455033507968 216 220 218 0.90982992419374076 13 214 12 183 11 309 10 266 9 493
1258 -0.19304601822454714 1.0700081202245886 0.65487555136437292 236 229 219 1.7037148038828778 11 371 10 295 9 213 8 158 7 177
891 0.53156449486623403 1.2774920790374777 0.22617379170399829 82 106 152 0.47080923323216489 13 183 16 190 12 184 11 333 10 610 9 779
1775 0.41877247518167854 1.0901748738187733 0.29416592973665734 226 229 227 0.83565980411621688 18 414 21 378 19 380 20 433 22 646
1769 0.54912186544762742 1.5119040492594737 0.19102215146784182 175 173 177 1.3482212969237164 18 235 21 364
894 0.48954867403032093 0.88156114386700757 0.57265076606150866 245 186 192 0.2879770477216973 14 123 12 204
895 0.57898030402138168 0.909205144021486 0.55962264308596377 231 176 182 0.59348726958677089 13 556 14 127 12 207
896 0.72323381953524879 0.91559942405921835 0.80099631026649531 229 226 217 1.1351412006751378 13 560 12 211
897 0.33659303888711978 0.94622777782876522 0.44286318676060232 135 149 185 1.1300589084501864 13 218 14 775 12 213 11 513 10 476 9 639
898 0.65989882732260408 0.93360452177249442 0.60242666667255651 242 237 221 0.029007893187078325 13 565 12 215
1043 0.84170327248011279 2.4125850389192589 0.10655066678547027 121 82 127 0.47580210573853815 13 988 12 973 11 756 10 676
899 0.35151959162276786 0.97374477951408578 0.39715666567930907 117 128 156 0.58066778347864567 13 394 12 219 11 633 10 718
1071 0.1381170281034502 0.9411570771673835 0.48561035625106591 251 249 228 2.0968336605583042 13 27 11 35 10 30 9 22
902 0.1181027362469844 1.0087305826097528 0.40330605918327334 252 249 235 0.42971491910851872 13 231 12 227 10 152
3095 -0.17522142526932896 1.0447430496520449 0.66177065648336464 212 167 175 0.50250932424611139 6 157 5 73 4 98 3 104 2 108 1 141
903 0.14950024848071242 1.0378456218478225 0.36577243111078739 234 231 216 0.65611788116423719 13 234 14 256 12 229
1566 0.75000847310661956 2.0083596707356435 1.1751577590903839 147 117 145 0.94887884255847388 15 32 21 289
905 0.075614767352688697 1.0648468376999352 0.3792710394865299 244 242 227 1.2295401681629785 16 730 12 238
906 0.39930560683018135 1.0514060804725343 0.32066751566396834 153 165 189 0.42695959959628421 13 193 12 239 10 284
1051 0.60393759615215747 1.59546504597803 0.2225486887167783 95 102 141 1.0032902645330064 13 994 12 477 17 850 14 467 10 637
1079 0.14763895467981797 0.96880600441363651 0.44384595020067752 206 201 223 0.519311490262097 13 140 11 101 10 111 9 117
2982 -0.1855290919444445 1.9841995085132995 0.78689075603104996 145 120 149 0.62056958376148774 7 547 6 333 4 133 3 148
910 0.021504359846037786 1.2565237317286719 0.2816761373809436 218 218 210 0.85535353532911029 13 257 14 287 12 263 11 354
1564 0.56030171871525292 1.9932692025563004 0.41160188909796058 69 68 126 0.92052960367996972 17 25 18 36 15 26
911 0.016356732343032351 1.2771511144837064 0.27440733247078447 211 210 205 1.3212779772604042 13 259 16 787 12 266
912 1.0081454318145484 1.3028416239111515 0.81314050227051193 203 193 195 0.311529211377229 13 416 12 268
1638 0.43168972104628833 1.1084668242747735 0.28893595654873533 141 153 179 0.32343989952177277 17 570 18 420 15 341 21 732
913 0.54788079889202368 1.338975162135559 0.2116268165839755 100 119 159 0.75266121500767502 13 270 14 304 12 274 11 485 10 306 9 803
914 -0.008825267112189927 1.4581384005274158 0.25017852570180843 199 199 197 1.5620885756061418 14 759 12 280
1123 0.29647907474614599 0.9289866676554781 0.46940667400369851 241 239 222 0.8144260111788707 13 711 11 353 10 524 9 632
915 0.47112181382402973 1.2246033264647442 -1.7636986245772324 196 187 192 0.803977414951907 13 961 12 281
916 0.60183065479746478 1.5521993060725756 0.21384667296277515 109 119 154 1.4924730848610315 13 288 12 289 11 242 10 314 9 312 18 466 21 578 8 303
917 0.043065269750213228 1.8334127681551931 0.32016151825796813 184 175 180 0.75213611303784877 13 165 12 303 11 193 10 336 9 338 8 179 5 269 4 236 14 815 7 355 6 300 2 336 3 301
1087 -0.069936107565642405 2.592019074177156 -0.12745816060196483 175 134 176 0.043689370356034762 13 137 11 139
918 -0.0002315737074471814 1.8468680100175876 0.36038007164950037 171 159 168 0.67461437324408324 13 594 12 304 11 552 10 217 9 406 8 269 7 358 6 308 5 437
3175 -0.14932145933247193 2.0197903695517954 0.96966330179185278 124 94 128 1.3957203834806922 3 196 2 151 1 222
1636 0.44512254925433553 1.0839574232321025 0.31015938458949821 186 198 211 0.73024367054744999 18 416 15 336 21 379 19 647
919 0.55098476255428508 1.9757757974306649 0.39116397122696456 78 74 125 1.1231214556999514 13 471 12 325 11 425 10 402
920 0.52899391883355007 2.0294399886558478 0.43131752990723687 87 74 119 0.80021885738566068 13 485 14 198 12 332 11 437
921 1.1641300350877364 2.3343213654490653 0.23379471954471459 140 98 146 0.48786378612050185 13 515 12 341 11 286 10 660 8 393
922 1.0547408678850481 2.36084801149127 0.20193430285874586 132 93 140 0.47503516501976084 14 213 12 343
1131 -0.013635187773385715 1.7849838668542357 0.32776650954813608 180 172 180 0.79795400865251465 13 591 11 413 10 394 9 905 7 616 6 615
923 0.31196233915872035 2.449997293572939 0.20584980291797975 124 82 128 0.82588387367153815 13 872 12 344 11 765 10 449
3688 -0.46682616984635661 0.84812815426895782 1.0189436724662491 211 210 215 1.8055451330302417 2 177 1 624
925 0.54723948807767719 0.8961401439659511 0.56518565368565332 217 160 164 0.61145866337021892 13 414 14 235 12 350
3682 0.044085184617330755 1.1650206160035261 0.31011858457223251 233 230 225 0.46388955694052642 2 564 1 592 3 339
1644 0.49798427525513317 1.2434280393225199 0.22887560681230504 131 143 167 0.39037991554991436 17 584 18 432 15 365 21 399
927 -0.029431502559777611 1.7806039751504488 0.33653726155100916 181 171 180 1.2368192353526484 13 303 11 257 10 332 9 334 8 175 4 416 3 408 12 360 7 109 6 235 1 875 2 435
928 0.15597627716046478 0.95867749159068705 0.45313760451428897 207 203 209 1.1648623029952876 16 689 12 366 15 520
930 0.36779612567208836 0.96796109598313052 0.40833675669313252 154 170 195 0.3744798968706699 13 729 12 375 10 540 11 629 9 501
1075 -0.1053126303308855 1.0037490556396038 0.66104488251180282 233 231 217 1.188937574180581 11 68 10 157
1234 0.51495916992192381 2.581099597667603 -0.31080901578087466 158 117 161 0.1199694167832681 11 140 10 140
931 -0.11911927821396019 0.99901884752936676 0.63967603163668008 207 175 176 0.35595183925481272 13 229 11 321 10 258 8 151
1588 0.36060641769193785 0.95157782507726474 0.42463850362614763 200 211 220 0.23835190587524452 17 139 15 151
935 0.45614786956664144 1.1011144331724863 0.29720484957687116 188 202 211 0.49800453086251667 13 794 14 477 12 414 11 680 10 580
3286 -0.38291447053011468 1.5378603496681582 0.88767150533131378 202 166 180 0.29957114246865019 5 583 4 737 3 823
1242 0.038583546483180436 2.0098574684376618 0.48816168484246925 111 91 136 0.83453912495837024 11 128 10 200 9 164 8 191 7 227 6 206 5 284 4 443
3640 -0.36335033278393564 1.6752352439827607 0.8813113342663792 186 177 180 0.57306546011594495 4 249 1 292 40 466 38 480
1753 1.0248391057469191 1.5726045275139831 0.96030250645325399 172 161 170 0.68577224066836717 18 488 21 252 19 190 20 229 22 199 23 204 28 414 27 363 24 603
942 0.49691367894340588 1.2774607821045889 0.2152818716903761 118 132 159 0.43638006313402683 13 415 12 429 10 735
1596 1.0340261639379762 1.5395088053619979 0.84077449176042163 159 90 125 0.64623706801955649 18 129 15 188 21 74 19 115 20 73 22 61 23 49 28 84 27 116 24 305 25 94 26 321
943 0.56778216087702893 1.3793390965084171 0.20604976530079983 182 187 190 0.89795830827678436 16 830 12 452
944 -0.013170636983711988 1.4361134777251932 0.25384360108656301 162 160 163 0.58603216643455192 13 420 12 455 11 238
1542 0.67241482753832338 1.7995309520796527 0.32312862349257271 187 176 184 0.1256209707318337 17 895 18 1099
945 0.51919639550379793 1.4008582206530027 0.19055745343839695 176 181 184 0.28095431223220801 13 417 12 457 9 822
946 -0.016765451623425978 1.4686355126877177 0.25327420351665086 164 164 164 1.2283203582271232 13 957 12 459 11 393 10 257
947 0.57534269606473842 1.5275511260052024 0.20330166557028206 74 93 133 0.5515109661183405 13 429 17 831 12 466
949 -0.020802077368793335 1.6925686641458675 0.29113924199120567 176 169 175 1.1191162472783081 14 323 12 480 11 535
952 0.0049450464630707855 1.9174127950526068 0.41135708562117651 119 102 138 0.73849687032627476 13 465 12 503 11 164 10 196 9 165 8 187 7 219 6 252 5 279 4 247
1550 0.40487449224436017 0.85939167205379319 1.2080891937237843 210 209 204 1.6863587590695732 15 448 20 831
953 -0.0030918825909142479 1.9233844755629557 0.42048328646444244 170 153 172 1.4133822465050261 13 467 12 504 11 166 10 197 9 168
954 0.031742912847336095 1.9895303993451547 0.46860805965365193 105 79 124 0.39641998380365123 13 319 12 512 11 126 10 199 9 162 8 113 7 225 6 217 5 201
1035 1.8053971296131164 2.2064182149172278 0.39029578313061258 189 154 195 0.19413184678162737 13 740 12 917
955 0.049290329634561092 2.0436442702638948 0.52797545558923209 102 78 126 1.4708687917550982 13 323 12 514 11 130 10 120 9 101 8 115 7 231 6 255 5 459
957 0.35943758588025077 2.0513184126646897 0.42338504814462713 172 151 170 0.55285053707090537 13 327 12 526 11 444 10 416
958 0.59687795192944249 1.6627346316552425 0.23345117949039293 70 82 130 0.041661833302433948 14 802 12 531
961 1.0050123116782304 2.3372921529700084 0.2580079507648782 138 99 144 0.36471049226674879 13 514 12 548
962 1.712961627057908 2.2655890642227168 0.21686895676841364 165 125 169 0.0079580597516278415 14 1032 12 550
1107 0.084307437424847156 2.1094732176303674 0.61715645740549441 108 81 126 1.5413949625698251 13 662 11 283 10 244 9 367
965 0.49781662363031881 2.4689448878728824 0.090040535151438866 164 126 171 1.4015979011681285 13 883 14 958 12 569
2340 0.55849800331906441 0.90189121280958817 0.56561012500270191 240 176 184 0.46908235840387785 22 74 23 29
966 -0.02220527389488491 2.5566663662036455 -0.021415852480817257 175 143 184 0.14884038144247155 13 905 16 1066 12 574
3159 0.017547984262990028 0.92655389963310808 0.59278828660561422 252 251 238 2.1171885581232837 6 769 5 554 4 116 3 138
1630 2.1973472397012781 1.574950405014913 2.3123696129076063 172 131 176 2.4526071440040056 17 699 15 313
969 0.45403228227507009 0.835267117727854 0.66942144103673229 243 240 226 0.56684139667669864 13 678 14 415 12 589
970 0.38319383508897226 0.86572714060320066 0.58237909241153762 254 236 225 0.33213700351243064 13 687 12 596 11 596
971 0.34087434298111741 0.88239860618511345 0.57366816631097139 221 189 176 0.70313240892580819 13 208 12 599 11 303 10 460 9 222 8 311 7 264 6 495
3369 -0.31861979208635521 1.7509923710465074 1.0021993317701541 182 149 166 0.45047844710015061 4 762 3 440 2 236 1 302 40 265 39 261 37 414
3672 -0.33336632747761236 1.7530548428264534 0.96531807921726787 178 165 175 0.19138132178296929 2 238 1 506 40 264
973 0.5141006368343044 0.88728229821439075 0.58937039366540722 224 180 177 0.66638343585530202 14 432 12 606
1143 -2.0259686219138846 2.5047243478395003 0.86958696787989698 163 120 166 1.064039638604811 13 831 11 473
3046 0.42327616501331944 1.0161590395864302 0.35836951010413881 235 239 232 0.56565945050475919 7 783 6 762
1628 1.0322941656286768 1.5891791433197575 0.86054181888163817 156 97 125 1.6438319983500089 21 153 19 117 28 85 27 168 15 296 18 224 24 361 26 325
975 0.53570183763413959 0.89147771984830415 0.55617530141644556 239 183 189 0.62016331171980166 13 546 14 434 12 611
1702 0.3309291658906991 1.2418819348020218 0.79855262178250375 222 220 208 1.3811615888511761 18 0 15 0 20 0 17 0
977 0.16393289766313385 0.89114613012221955 0.58647940023561951 254 239 220 0.41074026201881314 13 696 12 633 11 343 9 625
1187 0.0035472973930947096 2.4806997734862652 0.22680111176934881 125 83 133 0.19274930868038923 13 874 11 773
978 0.47050217098368774 0.88264175105176623 0.55695493297792309 245 229 216 0.11353121192804326 13 690 12 637
979 0.10529883170210218 0.90768471588141308 0.63887669279167492 252 238 225 0.80366616831622806 12 639 11 612
2356 0.43114458299990743 1.0781860151274847 0.30797115040995149 135 151 184 0.34460073723605517 22 101 23 143
982 0.15958483240460053 0.94496200129754893 0.47244798502942792 251 247 238 0.28530840740893626 13 718 12 651 11 362 10 478
3239 -0.27474934673643736 1.1525256450071464 0.70336374969334348 225 213 207 2.1504359869929019 5 851 7 484 4 389 2 41 1 91
1700 0.54684840998360629 0.8961014751497185 0.56598092018316704 238 171 178 0.57529797545987726 17 94 18 92 16 136 15 117
1333 -0.33582628792187563 1.2481768457190805 0.84344970160630051 197 192 188 0.66389009318199688 11 377 10 124
983 0.32540626327434768 0.94526242067336619 0.45463811852506752 167 180 203 1.192916102628224 13 717 12 657 11 620 10 728
1710 -0.1220652065461599 1.2488645088001975 0.37250116861989263 151 125 162 1.7031367047387285 17 1113 15 340
985 -0.055123146790134643 0.97386476626142227 0.59121302638510609 254 234 223 0.50565168013615125 13 974 12 662 11 646 10 559
1195 0.60581434679382218 1.6948525745935452 0.24575524974020446 42 46 65 0.33606873772637291 13 587 17 869 18 1125
986 0.35726481752646455 0.9664200200219355 0.40989316046576391 173 193 218 0.38069802982615647 13 383 12 663 11 519 10 480 9 500
987 0.12521598031832207 0.99823628989728563 0.41637766593573439 244 240 231 0.43960171964595457 13 760 14 637 12 673
989 0.74940130113291115 0.98461186785778365 0.61254300705038589 241 226 219 1.0020590119074044 14 459 12 679
3746 -0.002292403881255877 1.3150366417146635 1.4721877494020945 177 170 177 1.2865493417925813 1 163 40 53 39 41
1095 0.51065858113037566 1.216657923609556 0.24313914713584237 132 152 176 1.2737376341479816 12 260 11 208 10 354 9 762
990 0.81298826225769694 0.98260570911707568 0.97889583905118427 117 94 131 0.38646659321706595 17 45 12 680
1708 -0.21880490512703485 1.3032694979744854 0.4548783828295222 203 197 197 0.64723409766786111 17 576 15 265
991 -0.13467902943988419 1.0406417591343169 0.58836361578353935 238 236 225 0.62993008920860616 13 777 12 685
1654 0.87486572349395564 1.9219109303858659 0.71469053315733999 151 127 151 0.60637150492699077 18 543 15 415 21 292 19 243 20 953 22 497
993 0.17726237959503097 2.547758228519152 -0.049961446443110992 154 115 159 0.2181020124533023 13 906 12 698
994 0.44543082379107346 1.1064127194776854 0.29260439689407181 178 190 212 0.57869795933212087 13 796 12 704 11 685 10 584 9 730
1139 1.204500243943728 2.3131700891752689 0.27968206155829484 150 108 154 0.54965025732526396 13 829 11 462 10 746
995 0.88237464902696727 1.0972170290794974 0.67914134807079218 221 213 203 0.25360893778275895 14 278 12 706
997 0.48325678019848811 1.1826783659156455 0.25094760427942581 128 147 180 0.47004157281112502 13 893 12 729
998 0.01669724691957036 1.2245960483574283 0.28666857813259655 212 211 209 0.53086279309090845 14 706 12 736
3191 1.4934494719438582 2.1679134616389848 0.62010469910357791 111 69 119 0.94024146887932858 16 421 17 508 14 904 13 887 12 902 11 584 15 219 21 301 20 374 22 577 23 310 10 713 28 523 8 577 27 501 6 999
1652 0.5546012344084732 1.9326818249055 0.34572929107799727 154 136 161 0.76272928976482912 18 1078 15 411 21 473
999 0.53127236223125263 1.222203274255883 0.24734937138679661 203 205 200 0.41648398356469024 13 918 12 742 10 603
1000 0.98545701406271036 1.232907788969462 0.8762209828218066 201 191 195 0.17852237597008228 14 68 12 747
1662 0.46382212536568912 1.124844223702637 0.28023274638289597 124 135 163 0.78438721250520727 18 811 15 474 21 709
1001 0.51802135345611522 1.2409581399274425 0.2367683876473646 85 103 139 0.23009464095646084 13 675 12 750 11 706
1002 0.50114675128501851 1.2713918904205632 0.21923704284261308 159 176 192 0.36889052170297748 13 926 12 756 11 845
1147 0.046471829406235315 2.0021192865405628 0.47300360159733057 162 145 162 0.84838075590794459 13 746 11 502 10 235 9 163 8 87
1003 -0.27462619400769067 2.6152710930508611 -0.11149475967078282 163 125 170 0.18669460445710803 13 813 12 761
3704 -0.31802945198610094 1.8010834982286581 0.86007117890022367 183 170 180 0.41149174643838826 2 789 3 443 1 715 40 605 39 449 38 895
1047 0.0092956326786530069 1.9253815862310906 0.41633096381039697 131 112 142 0.65226422687536778 13 605 12 1020
2950 0.17123251613677759 1.0493626889860956 0.34787889094199065 234 232 220 0.33243603054077403 7 287 6 170 5 336
1006 0.56522088379555868 1.4350476645129886 0.20307066013989125 117 136 169 0.26829294072796001 16 843 12 774 10 629
1660 0.41772074320769659 1.0424154767353015 0.33728143123639726 201 209 228 0.45104775327022778 17 555 18 783 15 459
1007 0.57552425167636689 1.4823460429120932 0.20158588148653711 116 136 171 1.0416364512187546 13 574 12 775 11 392 10 376
1606 1.2410533639976025 2.3130532571264917 0.24973878295920371 166 124 170 1.2514428039662622 18 984 15 220 21 847
1009 -0.017653667724542299 1.7404076299362103 0.30188631948019784 175 165 176 1.2895730345438057 12 794 11 94 13 299 10 104 9 94 8 100 7 106
1010 0.58723374379393323 1.9584148713209402 0.39326583060916442 81 72 119 0.56216946861820338 14 862 12 795 11 562 9 917
1013 -0.0088921513671157346 1.8170761892916536 0.34310953037239889 176 165 174 1.6288115085342851 13 368 12 807 11 157 9 96 8 178 7 215 6 301 5 433
1055 -0.16106689075630529 1.0370926374762177 0.62223250412212883 222 207 203 0.46684201288467991 12 388 15 523
1014 0.57222967425577542 1.7843897462496268 0.26678237778470787 155 151 168 0.60524861619965309 13 452 12 811 11 410 10 391 9 928
1015 0.002259754333404875 1.8659583391136445 0.36980417777687319 165 152 171 0.76406851708292933 13 597 12 816 11 263 10 219 9 344 8 183 7 216 6 310 5 202 4 423
1614 0.66338029039323576 0.90807824620424915 0.67608629448661539 226 223 206 0.4799256984827685 18 658 15 248 21 431 19 366 20 419
1017 0.012229082282009439 1.9117696958542596 0.4027887769490357 171 154 173 0.53648290792431952 13 464 12 827 11 493 10 223 9 354
1018 0.56207706200233698 1.8657713579987139 0.30077235989565432 154 145 163 1.1983152800626506 13 598 16 427 12 830 11 550 21 463 18 336 20 319
1099 -0.0085925320454260587 1.3445082511375557 0.26595947167923112 146 143 154 0.28310998314546904 13 271 11 232 10 212 9 201 8 215 7 191 6 211
1019 0.021590106494919607 1.9540192381851582 0.43955343943214464 134 114 143 0.68392041313494667 13 468 12 835 11 274 10 230
1021 0.10038725456447263 1.9654343301679338 0.39411966149019451 178 160 175 0.75969122080844342 13 377 12 840 11 430 10 411 7 640 6 634 9 949
3650 -0.60581815407945572 2.4259211229995379 0.60054789655705609 137 94 148 0.75647282189063403 3 527 1 411
1127 0.3407662945879753 0.98440016971720334 0.38230951059428847 161 173 196 0.71747542729476788 12 84 10 484 8 534 6 1013
2966 -0.2738718686878 1.1565894178157921 0.71976185686063665 210 167 177 0.55510824552871718 8 445 6 264 5 132 4 150
1022 0.38684860202514876 1.9307885410165777 0.30574604919671045 179 161 173 0.04619793551106148 14 1030 12 844
1612 0.35541664919365645 0.93590931809460642 0.43593060569778996 211 217 220 1.4666900964702896 18 637 15 242 21 651
1023 0.028944424267558038 2.0035978037590718 0.48605077774364952 164 141 170 0.27533913487564815 13 627 12 845 11 438 10 236
1025 0.039453046607996159 2.0412131754975764 0.5322584658734768 154 131 159 0.84139412848190687 13 321 12 860
1972 0.82885819530398841 1.0511732334129706 0.63795791592067264 212 208 199 1.8676022045303695 21 99 20 104 23 102 28 67 25 159 27 156 26 521
1029 0.69149306768714247 1.8331709020868006 -0.31992581789810692 149 123 152 0.34070987134947539 14 755 12 882
1033 -0.54513725451782347 2.423369626572268 0.58016785897835088 152 115 159 0.014511021905940339 13 834 12 909
1980 0.59558042524746013 1.7599676419599766 0.26399406718723339 93 90 137 0.80695977797222584 19 34 20 151 22 770
1037 0.50333713271715896 0.8837810188555838 0.56699221819134682 225 174 173 0.27614821703874981 14 429 16 254 12 934
1038 0.58960743796008586 2.3848284374027311 0.31026812432628387 109 70 123 0.23286384243647451 13 841 12 942
2515 0.65719581063313903 1.0696218021906678 1.3221758852398919 188 186 192 1.2506396717902466 22 855 23 395 28 164 27 176 24 117 26 118 30 149 29 149 33 174
1040 1.2397068345777411 2.3147497608543506 0.25071480700805637 129 92 136 0.25480078405358386 13 833 12 949
1920 1.0091482058346382 1.6783858592625742 0.76445396992424863 177 166 174 0.31837020684181999 21 467 19 427 20 546 22 947 23 485 28 988
1041 0.96388896301558025 2.3578601565315149 0.23572082099295835 132 93 141 0.37484056899157209 13 839 12 953 11 740
1045 0.57872215312090569 1.6692909492767731 0.22866223383459941 112 122 158 0.23757405309741611 16 1122 12 1003 18 1129
1048 0.53569892312661738 1.4349741663812372 0.18953232649007187 95 114 146 1.0354515554901531 17 610 14 310 12 143 13 421 16 341 11 236 10 255 9 833 18 1160 15 281 21 566 6 832
1928 0.88798658903252381 1.1126175963296858 0.65616072516949131 188 143 150 0.56530865040685419 18 841 19 503 20 674 22 860 23 776 28 873
1049 0.58102962478606901 1.5593027450367813 0.20791342896669227 105 118 155 0.44196330001127632 13 433 16 612 14 541 12 470 18 1138 15 351
1932 0.28866446673287305 0.85059238055688235 0.65577534940876214 245 242 229 0.39146732878232421 21 530 19 532 18 364
1053 0.0061656160450716032 0.93398219171893981 0.59610319144315316 249 232 222 0.91376738718813766 14 601 12 352 9 662
1872 0.53777633423927063 0.83010604133819521 1.0115673683484265 232 230 218 2.4766245849172184 21 321 19 213 20 226
1057 0.90506796401275513 1.0935076809919699 0.97244864799765829 201 196 200 0.6343065995282926 16 549 12 409
1073 -0.002443487928265146 1.5783552235553626 0.24103702795427473 197 194 190 0.88905396100013945 13 53 11 56 10 62
2475 0.89210944338668474 1.9020321686462951 1.043733270718828 96 51 92 1.8915959842985737 22 509 23 955 28 1100
1080 -0.12607641550677162 1.0215265082160399 0.60636636358493046 239 236 222 0.47811331787175043 13 122 11 105 10 76
1960 1.8876695141996511 1.9053873136200756 1.2892637608478463 153 114 161 1.4103911210246309 21 560 19 250
1081 0.057864021087930366 1.1145057909166647 0.33715031670300977 233 234 221 1.4410449846113054 13 190 11 107 10 119 9 120
2779 -0.11958092808032961 1.000282685199936 0.63821252777940973 232 158 175 1.0471935690238878 9 529 7 167 6 181 5 78 4 94 3 78 2 75 1 70
2501 0.62345947226366549 1.7585269544388717 1.4689085912442927 106 69 120 1.6230950511449198 22 125 28 86
1082 0.44107113846867357 1.1447627135185632 0.25790010786961415 218 219 213 0.1619442017202595 13 71 11 108
2032 1.0058590142744319 1.696342938052178 0.93724312081896999 156 135 150 0.50600704241527406 19 629 20 550 23 497 28 717
1089 0.61951988336584896 1.6396166987435374 0.23386308917057358 178 173 177 1.8964114230884845 13 438 11 169 10 384 9 864 8 65 7 496
1090 0.55586938650095841 1.5323211069804081 0.19506508679584408 172 172 174 0.60423645817988025 16 181 11 170 18 376
2557 0.68094583889018612 1.2380157770566118 1.4204943299213681 186 180 184 1.8210280311824569 23 415 28 369 27 204 24 129 26 77 25 248
1094 0.4519019162927651 1.1438661440211699 0.2632052163855601 131 149 179 1.6002920055773551 12 922 11 204 10 349 9 742 8 341
2040 0.19260396324719323 0.80870985605458301 0.95501458407731787 214 211 206 1.4154701043269573 19 397 20 620
1098 -0.016615848862249216 1.341496413757606 0.27444670788708203 204 205 200 1.305994860697407 13 269 11 231 10 168 9 202 8 166
1100 0.56976940064783588 1.8508159247747729 0.29929304760954512 70 70 120 0.29983176294815683 13 173 11 259 10 333 9 897
