# 3D point list with one line of data per point:
#   POINT3D_ID, X, Y, Z, R, G, B, ERROR, TRACK[] as (IMAGE_ID, POINT2D_IDX)
# Number of points: 376, mean track length: 5.0661205383265067
2297 -0.04709062396611384 1.6027248584542568 0.93132764051246586 239 187 141 0.47004122172160967 18 113 17 105
3406 -0.2358466915491331 1.6670203905442802 0.79250041387505887 208 176 138 0.36465664908616535 9 91 8 107 7 120 6 138 5 101 4 115 3 85 2 114
2300 -0.053953624687173407 1.9704829337075143 1.0726985709919508 40 37 71 0.11174100917269786 18 85 17 126
2893 -0.13719482138984759 1.6404852222147803 0.75887470303374172 238 194 127 0.36788962886585241 14 490 13 492 12 485
2302 -0.11516422426344752 1.9260755233898657 1.1282966249131963 31 40 68 0.85315915368305484 18 251 17 128 16 86 15 70 13 48
2304 -0.12712608697875216 1.9589661948055388 1.0717998848106414 33 32 62 0.24538382600040118 18 106 17 131 16 205 15 192 14 178 13 197
2307 -0.15744814593191597 1.4741766757011663 0.75933074977617132 38 30 29 0.3529912131297846 18 128 17 144 14 169
3762 0.18080475457660544 1.897224106082678 0.84010778547695653 111 116 181 0.6372301528310087 7 482 6 314
2308 -0.17642929140295743 1.8771244531217988 0.86984266416540923 222 156 125 0.95807435094684978 18 150 17 169 15 205 12 232
3255 -0.12788373616733481 1.6384983676534592 0.99056776069471641 162 94 85 0.53744671643091124 10 78 9 54 8 85 7 83 6 99
2309 -0.064746282338201788 1.6461228176157747 0.95054862182924005 109 116 176 0.46754648059191484 18 207 17 172
2310 0.21965028930330993 1.8519914748524808 0.80197316245029926 123 51 35 0.134881268710766 20 270 17 176 16 160 15 305
3249 -0.065792852962810344 1.9013727623979868 1.1224563034822768 239 183 109 1.2166136649751969 10 37 9 22 8 24 7 25 6 30 5 26 4 34
2313 0.054489829298074992 1.6953903729153137 0.79450762644075223 192 150 99 1.2044871075458252 19 208 20 379 17 189
2314 -0.18377522866291512 1.433206501567325 0.7733509720631434 244 189 102 0.47748488001086192 18 234 17 201 16 190 15 181
2315 -0.13576128614996619 1.4147645233097188 0.78525850964353139 249 183 143 2.2402968514112462 17 206 14 97 13 77 16 275
3770 -0.047562199025495112 1.903093701224424 1.097084025771393 137 56 48 1.0215667388282752 7 1251 6 372 5 385 4 316 3 298 2 1249 37 431 37 432 1 431 1 432 36 816 34 1050 35 1068
2316 -0.23940093307563362 1.9629071969697489 0.96849514880609089 255 255 254 0.83055881837741918 18 334 17 212 16 202 15 185 14 163 13 112 12 118 11 114 10 149 9 159 8 206 7 253
3263 -0.10750719390007539 1.436541042799836 0.79453311323019093 234 170 144 0.20363295272852122 10 164 9 109 8 150
2317 -0.18788474672845384 1.9798844635999227 0.9179928968901685 143 97 67 0.60878152904556515 20 208 17 214 15 740
2748 -0.11268137501345374 1.4150123768689506 0.78289296160377864 62 59 97 2.3148244468455301 28 997 31 1126
2318 -0.11089812611033709 1.9605358013888636 1.0676792706252514 179 157 155 0.31234394831153312 18 249 17 216 16 260 15 223
3257 0.13040342390468293 1.9719711072560193 0.93854892434334136 127 70 49 0.10165533129173876 10 81 9 75 8 87
2319 -0.076890876926112975 1.9125342232866678 1.0990417481298806 231 171 144 0.5763680634506072 18 310 17 221 16 473 15 245 14 198 13 239 12 251 11 811 9 953 8 982
5251 0.20909581140724209 1.9907711855244528 1.0568118379738602 96 102 176 1.0309369910152313 36 919 34 916 35 958 2 426
2320 -0.073283554625763497 1.9046240900126445 1.1246814566825936 220 165 118 0.19202686954425052 18 258 17 222 16 209
2321 -0.1771084443203301 1.9008942092723236 0.87664557450144198 125 64 61 0.21344756911762031 18 257 17 225 16 465
2323 -0.099680460244872385 1.756580617122308 0.8207704758259089 124 51 47 0.20609854324748003 20 169 17 256 16 238
3714 -0.32667919592809747 1.9432787736873045 1.0748402368165344 146 149 212 0.33662384648270582 10 914 7 1089 9 979 6 1141 3 1171 37 745 1 745 34 930
2324 -0.12453316295911653 1.6458276072320672 1.0045657214979715 72 30 25 1.5042323041229324 18 190 17 263 16 240 15 141 14 135
3207 -0.070458864810605898 1.5874442594111473 0.88191735145164096 76 31 21 0.98106664931227205 12 315 10 656 9 409 8 412 7 440 6 207 5 289 4 602 3 801 2 107
2325 0.097738797120111034 1.9739795774826281 0.9161097381961314 250 215 149 0.26818312035797459 18 271 17 280 16 439
2692 0.01859736772748477 1.7761736932517063 0.87964530198345525 164 116 66 0.16970301510858229 30 499 31 302 32 281
2326 -0.061489732644815318 1.8678756915805654 1.0023846845618367 118 123 180 0.84548521086946826 16 454 14 616 15 668
3201 -0.15373026972927203 1.4743839242816585 0.81337972183313945 56 26 25 0.18057196887340285 11 452 10 555 9 595 8 643 7 658 6 671
2329 -0.17467907447475242 1.8878515451126034 0.88792251482843809 152 80 71 1.5283023399654656 20 1106 17 295 16 463 15 689
2696 0.20084481765851037 1.9845751521489743 0.88470901620620634 83 27 37 0.77650516199695618 30 256 31 340 33 1042 32 309
5269 0.1358216545277629 1.9961268533190806 0.9637012133589512 184 127 96 0.039968853901964578 36 901 34 1166 35 1193
2330 -0.061006416433775655 1.9153653044878585 1.0984006392228791 190 127 109 1.8199130351886013 20 1110 17 300 14 195 15 707
2331 -0.18243086039429868 1.9047128562437472 0.89137347497385888 135 61 56 0.15970880546556718 18 314 17 301 16 470 15 699 14 641 13 710
3722 0.20117931655422674 1.9003928657467204 0.87070540683472697 236 164 145 0.2817868542287022 8 1123 7 1198 6 1178 5 1192 4 655 3 335 2 1052
2332 -0.082752874595216797 1.9250898999280721 1.0817122979771261 233 180 158 0.33563936708903369 18 317 17 304 16 475 15 219 14 200 13 240 12 711
3215 -0.11066086977582044 1.6656845104708802 0.85187697513244087 183 134 131 0.071536501301853822 11 593 10 713 9 1120
2333 -0.22412252862041182 1.9921004558775031 0.96663310046572737 53 23 45 0.69008960959179 18 337 17 311
2334 -0.052602902752682541 1.8533991686993385 0.99246533627961053 119 124 181 1.4408151648391834 18 523 17 324 16 446 15 647
2335 -0.14602660638586418 1.4131733328762504 0.76005298950279687 227 156 69 0.38436786627810887 18 548 17 333 16 288
2336 -0.08740966232245842 1.5389578253567096 0.82753252417008227 238 176 150 2.4112111862955068 18 395 17 368
2337 -0.10533912316204887 1.5948976139102216 0.75722376414796111 254 194 170 0.28030289338464964 18 685 17 374 16 332
2640 -0.10029933065632118 1.778016095422138 0.98572173986746603 118 45 47 0.46210603519516258 16 837 15 625 13 840 12 617
2341 -0.094148699665476746 1.6209691548620957 0.86358679404865946 255 255 253 1.7930371646230232 18 720 17 396 16 360 15 551 14 502 12 174 11 207 9 168
2644 -0.16987495973214739 1.8506778346575488 0.87455099099633837 230 155 147 0.13119886879407616 16 736 15 655 14 586 13 677 12 843
4039 -0.5283299445789662 1.8836562001053312 1.1595390162645909 114 120 191 0.24019342884465558 7 1096 5 1139 4 905 3 383
2342 -0.12390983839994521 1.6374830977715049 0.78146109987008006 212 165 167 0.2444308369624188 18 729 17 398 16 357 15 302 14 289 13 498 12 496
3153 0.28065243207448698 1.8251551724243678 0.78424852474011186 241 177 97 0.5367378051231021 11 66 10 70 9 52 8 62 7 59 6 60 5 61 4 46 3 31 2 46 37 33 1 33 36 37
4032 0.11341526191464422 1.9964732593674828 0.9745529846407206 244 184 133 0.5105499841198935 6 1092 5 1092 3 1392 2 1264 37 905 1 905 36 899
2346 0.19418693521646635 1.8719638386441968 0.8523389125116857 209 170 138 1.1393570998916165 18 820 17 418 16 709
5077 -0.026737140911140583 1.9293445500253874 1.1050414171505787 222 165 120 0.20801516453578942 4 929 36 881 34 1104 35 1125 33 997 32 900
2347 0.18679802820922109 1.89265950498933 0.84281206921460416 100 47 45 0.18778662181630543 18 482 17 424 16 390 15 336
3674 0.042111964780457437 1.6397686967755283 0.77273777801089671 253 235 161 0.48007962581100788 8 674 7 702 6 443 5 455 4 576 3 245 2 798
5070 -0.076932271607413033 1.9034156755479512 1.1397167901991623 126 40 42 0.48769859265058407 1 896 37 896 36 847 34 1067 35 1090 32 868 31 1221
2348 -0.10383090566970496 1.5915583767543597 0.83342773411813442 255 254 253 0.2194509501952506 18 696 17 429 16 626 14 281 15 525 13 312 12 308 11 515 10 630
3167 -0.11068408426184347 1.6311821028546873 0.99246978849084022 207 118 96 0.3638914810453322 11 185 10 230 9 234 8 255 7 293 6 321 5 262
2349 0.16956062523392521 1.9413459613292543 0.8734790463389428 94 44 20 0.085532836651461774 18 1111 17 447 16 415
2652 -0.19367504115089554 1.9374071184695498 0.91899218406482541 143 64 64 0.13143417667762414 16 805 15 724 14 658 13 736
4047 -0.0068804450364938589 1.7326647533316091 0.96337082937002472 146 42 30 0.1767646966458862 6 1187 5 1211 4 1329 3 1335 2 631 37 1295 1 1295 36 1289 34 830 35 934
2350 -0.13642155793342717 1.4119852554070871 0.75001617713526336 230 166 63 0.2862470833178648 18 544 17 475 16 483 15 409 14 375
3161 -0.08866788381205 1.8624711334487101 0.90705117728872642 118 122 187 1.7757468782553696 11 177 10 124 9 76 8 137
4040 -0.39024456315885625 1.8711005362686972 1.2022118877759709 150 155 214 0.235892328266184 6 912 7 1098 5 1151 4 1419 2 1415
2351 -0.14770487369139679 1.424872395116723 0.73884512826263571 172 99 26 0.75597349884123355 18 552 17 482 16 490 15 253 13 377
5283 0.10061137671536367 1.9791033698352165 0.95900649883357625 227 154 134 0.48580047120690029 2 1213 37 857 1 857 36 850 34 1118 6 1061 5 1064 4 863
5074 0.077831277145803138 1.9792341316030255 0.9792159179939719 143 61 66 0.036323311389563226 1 434 37 434 36 867 34 1127
2352 -0.1487369904894689 1.4248009051072597 0.74717169746934753 243 186 132 1.5894768952193328 18 555 17 484 16 493 15 416 14 381 13 381 12 391 11 412
2353 -0.1369277021630394 1.4400123632510078 0.72768097441230906 245 200 121 0.16473998592180306 18 559 17 487 16 289
2720 -0.015948631722221582 1.5528976845308804 0.79550616066019442 254 216 137 0.1622088748985922 30 661 31 631 32 645 33 1234
2356 -0.017745417322870553 1.604439586792558 0.75906040069445668 113 33 19 0.84500091135167532 19 1139 17 575 16 319
3239 -0.17447849030328078 1.8794798656061045 0.91590773955182014 136 69 72 0.16646072739537235 11 725 10 1003 9 842
2357 -0.088153036417746466 1.5592884172430383 0.82561986158506628 194 123 115 2.0362699175258379 18 673 17 587 16 326
2724 -0.010825603896583989 1.5875414384887379 0.87622818477915776 211 140 141 0.29514643946435531 30 722 31 709 33 427 32 721
4055 -0.18931803595220723 1.4287888386956404 0.80124641319016898 249 195 158 0.54825073842651451 11 442 10 480 6 418 5 394 9 287 8 156
2358 -0.088656968342266454 1.590684626565136 0.74323333837537076 247 199 116 0.29926201747193465 20 436 17 592 16 584 15 842
3233 -0.14178881616590866 1.847600027864823 0.90744306400718677 112 51 57 1.0945348130995995 11 689 10 955 9 982 7 1133
4048 -0.016268205392592265 1.7170897476882945 0.95726803030339991 251 208 157 0.39511876281195524 6 1203 5 1229 4 1313 3 1353 2 570 37 323 1 323 36 304 34 505 35 1332 33 892
5301 -0.12528664004787518 1.4379955272175358 0.80794709396804198 103 88 107 0.36373239159933696 35 70 33 111 32 1006
2362 -0.12121511929629926 1.652115343050091 0.80433866483522654 244 215 216 1.286941253493437 18 744 17 671 16 674 15 311 14 295 13 529
2363 0.22119541947384541 1.8472692112610958 0.79902601705016241 237 192 127 0.20841809819430918 18 769 17 672 16 664 15 546
3754 -0.055098488180288764 1.9226687567260674 1.1261729617044172 182 120 102 0.14519702405494619 7 337 6 243 5 337 4 324 3 288 2 429
2364 -0.095648121011858114 1.6472062749530385 0.87985214450224214 249 203 194 0.15744906728951472 18 500 17 679 16 685
3247 -0.071666481797540885 1.6224427927953331 0.90281927508980575 107 49 51 0.94431308629816124 11 8 9 6 8 7
2365 0.21970770405893672 1.8525105057790563 0.80876195562947695 200 138 111 0.21236552509613518 18 781 17 682 16 364 15 306
2732 -0.022426347207049325 1.9121788687829091 1.066373950655741 193 147 107 0.28346241023231855 30 919 31 984 32 871 33 956
4063 0.016423352022391442 1.6971957763520107 0.85737665722392065 143 68 54 0.70320714671676487 5 63 4 59 3 67 2 79 37 67 1 67
2366 -0.19584589005975223 1.9464708864193792 0.93453897800544961 215 145 133 1.559429894566714 18 1033 17 718 16 821 17 940 15 731 14 664 13 744
3241 -0.11907831188357222 1.6114857157239628 0.75836192132715485 89 46 27 0.10683611771885528 11 480 10 1028 9 625
5081 0.081028999815750874 1.9939876976936572 0.98613104386922257 58 27 25 0.212437928571587 1 899 37 899 36 896 34 1300
2367 -0.10458520524710251 1.7865411885667362 0.98363941148302281 96 35 44 0.55727420223708424 20 1185 17 765 15 384 14 718 13 661
2369 0.15698482433403238 1.9921772564961144 0.89470812706858016 219 175 127 0.34732505894020954 18 841 17 782 16 870
2800 -0.056449136289240337 1.577317025340405 0.89479512881193413 174 120 38 0.2334565422751993 15 518 14 469 13 478 11 531 10 655
2371 -0.10385955964173733 1.8110008644382745 0.99843210196169774 104 44 49 0.31621934221439096 18 1017 17 796 16 717 15 640 14 583 13 680 12 641
3826 -0.19821697852401582 1.6657545848285522 0.79395716427372764 182 130 110 0.23365290129048161 7 767 6 792 5 800 2 778
2372 0.17512407882435713 1.964928717159123 0.87415583175499878 200 157 113 0.22504075567119566 18 1092 17 807 16 904
3319 0.18746622740190916 1.901277172927714 0.86978378423480263 129 59 38 0.1151067889613878 10 776 9 464 8 1119
2373 -0.16276875116033199 1.8351616605910759 0.85932267065629619 148 58 54 0.19399115143057435 18 861 17 812 16 720 14 793
2804 -0.12345357140022789 1.6342993868670108 0.78498368384158324 149 94 88 0.37989255963686014 15 545 14 491 13 497 12 826
2374 -0.17042287999346051 1.85239756774966 0.88287566979348231 213 135 128 0.28863430042910304 18 903 17 830 16 743 15 665 14 596 13 678 12 631 11 683 10 1059
3313 0.23395314848528392 1.8767082768283152 0.84023719227372717 243 182 162 0.26142812138461896 10 724 9 440 8 451
2377 -0.09096336142628092 1.9201527800394054 1.0895561238907079 127 70 45 0.12799732716554943 18 991 17 895 16 794 15 722
2808 -0.11017069193438986 1.670651023042244 0.85242309211270273 143 71 80 0.055853055657874691 15 603 14 550 13 825
2378 -0.12976244959410738 1.7825739186626157 0.87764828869250233 227 151 147 0.11348532191406227 18 1106 17 904 16 888 15 683 14 733
2379 -0.083219692462496025 1.94402360268409 1.063861254274727 89 46 30 0.11546187579138641 18 1001 17 907 16 797
3834 -0.010195864550625688 1.6880452015015037 0.91521371417533748 111 32 28 0.52342289051107449 7 871 6 887 5 506 4 1241 3 925
2380 -0.12232307895447085 1.9235070966632792 1.1042948394046184 255 255 253 0.13927688005925631 18 1006 17 913 16 819 15 738 13 594
3327 -0.084830413227630061 1.4648757250130571 0.7921885173173413 236 169 142 0.36473975936213282 10 524 9 559 8 606 7 1220 6 648 5 655 4 1003 3 656 2 668 37 974 1 974 34 584
2381 -0.13026902108824656 1.7877992847248021 0.86879837510993985 217 149 143 0.83999142565281182 20 540 17 915
2382 -0.13006508821538018 1.7706220892798041 0.87543082190989818 201 120 120 0.19402185407887804 18 1117 17 922 16 901 15 697 14 736 13 610
3321 -0.12472498206676945 1.6400940900250827 0.9928341707113566 144 47 29 0.50610635459293751 10 355 9 479 8 475
2383 -0.12864205367977377 1.7623642968981774 0.8704437755526383 226 144 137 0.30702068374317493 20 1226 17 933 15 369 14 333 13 740
2384 -0.1118201930379122 1.7653108246083546 0.83548005537337211 235 165 152 0.42837486429259614 18 1132 17 946 16 412
2593 -0.091592834165162382 1.897577931487803 1.1320394761659256 236 183 151 1.7954221543855189 17 888 18 977 15 200 14 184
2385 -0.11343616027389844 1.7424564212315399 0.82774784303090532 146 61 52 0.28737727573632638 18 483 17 961 16 947
2752 -0.17726596164626601 1.4305019732704765 0.79011920923873735 220 141 110 1.1966154000330014 15 16 14 16 13 11 11 12 10 9 9 10 8 16 7 8 6 14 5 10 4 16 3 13 2 29 37 23 1 23
3110 -0.11308074811602849 1.6726564006057845 0.84200501064487765 125 49 52 0.12809937184377709 12 550 11 592 10 711
2387 -0.23883664844171282 1.9627534955357127 0.97875187857614243 77 31 98 0.11689563409959514 18 1046 17 1013
3778 -0.11185048419052306 1.4161830159847035 0.7469727102224536 254 228 153 0.11061071908938762 7 367 6 404 5 413 4 507
2388 0.18855646018616495 1.8809196178749752 0.85085465017237194 99 44 33 0.26190407444463476 20 756 18 181 17 159 16 103
2597 -0.10849731793862406 1.6987026146569575 0.89786102315822236 214 138 131 1.1981570704677482 16 243 15 234 12 10 11 10 10 12
3271 -0.11889253470459528 1.9221906549542922 1.1140274887957862 254 239 218 0.23805213132181646 10 438 9 178 8 996
2389 -0.21730855106684019 1.945271347550654 0.97035823576940206 255 255 252 0.80041192573775843 21 139 22 134 18 330 17 307 19 105 20 80 16 264 15 227
2756 -0.1485342575487506 1.784659072509831 0.86862120651676589 195 115 108 1.3455292705468833 15 214 14 49 13 60
2393 -0.13397749927984565 1.4065130457871551 0.76481291078399694 179 159 137 1.7305204328405674 21 1044 23 1075 18 542 17 471 25 1134 21 1047 23 1076 22 1039 26 1078 20 391 18 357 16 482 15 411
2760 -0.063439282606719299 1.6034791467059806 0.89074924688587342 107 78 44 1.4253543560494173 15 65 14 65 13 68 12 62
3118 -0.15220231084078226 1.8120292000111637 0.86827669870047808 224 155 154 0.15672661234028282 13 641 11 637 10 850
5333 0.20631670743693306 1.9561534235749096 0.90057857782909012 113 52 54 0.55919608985681157 34 268 35 384 33 1118 32 948
2394 -0.1107994914327135 1.4168635777573433 0.75202171746495272 245 198 141 0.59804860642055513 20 554 18 539 17 992 21 1048 23 305 22 1041
3627 -0.064337514901601334 1.5658235032616115 0.87193639407966783 219 150 112 1.0832466933278362 8 390 7 423 6 465 5 472 4 1142 3 122
2395 0.013520561040390866 1.6142635755075356 0.76799958476257058 187 117 85 1.9490382968337547 23 364 20 685 17 369 21 1213 23 1203 19 1140 21 1212 18 661
3786 -0.090743311648466177 1.6305934985482633 0.8823666754119206 148 90 95 0.066441350407188099 7 184 6 480 5 858
2396 -0.042693468720054681 1.627172580630551 0.91904021424413951 109 114 168 1.6118819963525337 17 394 16 356
2605 -0.11818173315273864 1.6289419845340782 0.82279537011475923 255 252 245 0.33763349241801927 16 662 15 308 14 291 13 324 12 320 11 543
3279 -0.1266604278201256 1.6541142159458151 1.0227127847310697 255 247 236 0.12928980208089308 10 240 9 219 8 246
2399 0.10393347807809265 2.0425080825191615 0.97472795367491483 107 57 75 1.543085938976134 29 8 30 12 31 8 33 7 32 8
2400 -0.055874714223955728 1.5989724103210101 0.74605412383989012 250 218 139 1.4273508243115147 28 7 30 16 31 10 33 11 32 10
2401 -0.081367169018090268 1.6682433385603621 0.74840068769534784 114 55 51 1.3825124055974056 29 9 30 22 31 19
2704 0.012168865580824367 1.6178292937005876 0.81978186311292978 254 230 159 0.14561322394911333 30 217 31 442 32 183
3730 -0.12150443361593953 1.4433098892724512 0.806075167850277 126 69 80 0.11733105934913246 7 61 6 50
2404 -0.016628258656092416 1.5621838212869084 0.76418826732423994 250 211 136 1.171990527431747 29 39 30 77 31 119 32 126
3223 -0.069780307130270378 1.8826423530045775 1.0787373215218863 128 57 63 1.5506411064132339 11 254 10 867 9 930 8 962
2406 -0.051176797998521213 1.5115900229069397 0.75431218325042315 244 224 155 0.53639754666225503 29 70 30 97 31 118 32 116
3217 -0.11142808196045194 1.712188697128632 0.90549928660276702 213 141 136 0.09302314148327491 11 828 10 798 9 1088
2409 -0.11154213171366534 1.6660682487366423 1.0168711784670277 112 120 187 0.88535861258283222 29 66 30 109 31 179 33 175 32 143
3738 0.0029464151584944415 1.729711870944735 0.92989253125979654 152 79 74 0.4719952894934048 7 153 6 98 5 111 4 119 3 91 2 121 37 91 1 91 36 94 34 100 35 171
2412 -0.11590682910545633 1.6753668997271212 1.0276375962651789 72 34 41 0.38018714747781596 29 309 30 119 31 178 32 144
3231 -0.14332655459745552 1.830656547874782 0.90039052696389499 196 133 125 0.20550764787412859 11 669 10 930 9 1000 8 1062 7 1153
2414 -0.050486843486248649 1.5405719072346198 0.74620513952999001 249 217 144 1.5448516787260271 29 72 30 148 32 360
3225 -0.21811362502904855 1.9622942887150512 0.99025659887213224 181 124 107 0.72129075243314233 11 614 10 878 9 310 8 305 7 321 6 368
5347 -0.011772042545351729 1.5896919804194447 0.88700213721802623 228 154 156 0.39234813705650823 34 707 35 472 33 731 31 714 32 726
2416 -0.02239633352127824 1.6005580563344872 0.76719186007359252 118 50 19 0.16355747050171077 29 129 30 154 31 145 32 130
2417 0.014042061095755148 1.7262663197900976 0.91127543896280327 154 84 29 0.29789875953464018 29 531 30 183 31 188 32 465 33 483
2784 -0.098199196162061075 1.6860841192764304 0.89537967554509945 156 70 81 0.14586079649218139 16 244 14 306 12 212 11 361 10 327 9 890 8 801
2419 -0.041557005113810573 1.7232309761218456 0.79114983501289371 242 200 115 0.213609234955521 29 141 30 194 31 219 32 438
3810 -0.11891978753281907 1.4577863111521852 0.80488141004764258 158 92 98 0.063774253265530656 7 642 6 654 5 431
3303 -0.092292264852531225 1.4670892887732232 0.79770911703460967 237 166 139 0.35652601353711161 10 534 9 369 8 357 7 639 6 652 5 660 4 1006 3 661 2 673 37 977 1 977
2421 -0.2436356083823312 1.6207605184578799 0.79301013693006484 255 254 254 0.47962508013241106 29 190 30 236 31 395
2788 -0.12531897977567735 1.7473734876011446 0.85356878550038295 123 54 61 0.10993362944435263 18 177 14 327 19 238 20 251 13 782
2422 0.20336768903295976 1.9857042378583192 0.89501402052217605 88 38 61 0.40104773489325407 29 1165 30 337 31 341 32 209
2425 -0.054623810818753192 1.494161356169005 0.75118046858016596 255 251 188 0.83448456727457554 29 428 30 351 31 878
2792 -0.086273720539239401 1.4896024573261943 0.75764969181264108 217 163 112 2.040416899398358 15 428 12 404
5365 -0.048371819180227781 1.523541527454086 0.77287270071867142 197 115 47 1.9434393583308689 34 604 35 652 33 631 32 619
2426 -0.046309484417424815 1.5132289439035802 0.78370662752481901 157 66 28 0.75443542569832622 29 692 30 357 32 355 33 244
2427 -0.1037100186194741 1.5977741811676429 0.74733531249302854 255 244 160 0.67447287201460604 28 1092 29 189 30 371
3818 -0.048765882411479666 1.5358828359154808 0.82220835174616191 252 195 131 0.41570429625466582 7 689 6 700 5 712 4 1064 3 715 2 722
3311 0.2026074008057919 1.8486045446548978 0.82123294672565483 249 201 151 0.29554636300088866 10 304 9 435 8 821 7 466 6 500 5 523 4 347 3 565 2 594 37 347 1 347 36 1070 34 544
2429 0.00081867107206932163 1.6141214217661564 0.81707483302838524 114 59 22 0.13407936806496118 29 328 30 410 31 719
2796 -0.074549786305904642 1.5901600552909967 0.7362822534795288 81 77 105 1.3434110888246118 15 290 14 426 13 291 12 819
2430 -0.10738515225926912 1.6737537327345591 1.0314999517566126 116 120 178 0.35779300196788677 29 509 30 447 31 474 33 846 35 903 32 447
3305 -0.14065498334741952 1.6426676446241724 0.74834990506333632 239 202 143 0.14467452388243651 10 182 9 388 8 848 7 708 6 712 5 718
2431 -0.029179327902923685 1.7202456661535157 0.79839014215552551 158 83 21 0.43288419899536701 29 515 30 454 31 476 32 171
2432 0.028193841299818428 1.6924827057724348 0.8512463014590318 253 246 168 0.12606881719165339 29 514 30 456 31 482
2433 0.0016494272968627451 1.6977651269756822 0.89888428308624702 142 75 29 0.61205195085733566 29 517 30 462 31 483
3094 -0.11419728773546954 1.6098647418100005 0.82618921999188544 237 222 215 0.10946188926672185 12 314 11 330 10 645
2434 -0.050854955606771064 1.7459458390060996 0.79478897677708849 249 207 138 0.66787579913325457 29 297 30 465 31 819
3603 -0.12869448706044107 1.9290515824681043 1.1124527984290931 251 229 220 0.17409108053699096 8 175 7 239 6 244 5 386 4 1212 3 1260
5136 0.013639789782658108 1.7230953149254902 0.88998325352435503 249 196 129 0.37260138236658324 1 1375 37 1375 36 1259 34 850 35 915 32 459
2435 0.0059286192565874609 1.7033744230213743 0.89760429528423313 223 186 121 0.13096757177858162 29 522 30 466 31 194
2437 -0.0012389963811351159 1.7292508877681978 0.95748219031781878 219 173 125 0.27442330670696174 29 533 30 483 31 504
2439 0.016208898717015408 1.7733584522143646 0.93338499740021907 176 124 90 0.28033434860035999 29 659 30 502 31 298
3092 -0.13277270056686952 1.6294311565670077 0.75668966487318545 241 207 134 0.28346100506166971 12 306 11 318 10 600
2440 0.0062355236091802234 1.8004143067934579 0.94694444603865457 169 114 89 1.5077943471972606 28 1397 30 513 32 1101
2585 -0.023126541816572206 1.6000191087484796 0.9337831236370232 207 140 88 0.51391610166926294 16 171 15 113 14 286 13 165 12 131
2441 0.0053583017048658881 1.825388564498142 0.86223194245941237 255 221 164 0.13253773215343304 29 577 30 514 31 527
3102 -0.14665725741494121 1.4092643142395258 0.77262267797438589 254 198 163 0.26320085384118586 12 392 11 413 10 510 9 542
2442 -0.02649782443039056 1.8306092670796226 1.0102491504992483 65 34 39 0.33538230640071859 29 587 30 528 31 536
2589 -0.15220499958449221 1.4136921999475915 0.77244938005422903 246 180 142 0.82222181911580283 16 195 15 187 14 236 13 187 12 205
2447 0.015065590515145619 1.9269447221740925 0.91056431556347339 117 25 22 0.18808634310573483 28 437 29 1022 30 574
3100 -0.10401652925477325 1.7867051363082849 0.9910070813599603 118 55 61 0.10879182128218028 12 235 11 403 10 972
2448 -0.13751711016507484 1.4008631881490679 0.77086147382003178 52 50 98 1.1786511948447516 29 631 30 577 33 583
2657 -0.12610860866787707 1.9639975921276092 1.0702752448824779 85 96 160 0.38546860965194174 17 1010 15 752 14 691
2449 -0.11029979682392851 1.4264353941580195 0.74143318727821284 253 214 115 0.13705477176215811 29 637 30 588 31 568 32 580
3174 -0.12477321573594463 1.6518353720915155 0.79433113047334603 110 98 138 0.34579765917920319 11 210 10 288
2450 -0.11544626542289287 1.4441115496541976 0.72962224998602743 254 227 129 0.16022445042226532 29 644 30 593 31 574
3683 -0.21896880590456863 1.6645328767590779 0.7967086717947448 146 114 81 0.24289749041165162 9 739 7 780 6 798 5 803
2451 -0.065691957245603408 1.4697889153074029 0.76257476354162967 249 199 135 0.17920706367683631 29 1341 30 607 31 329 32 341
2452 -0.049044117911995075 1.4954865537240567 0.75840124535753728 248 194 145 1.0053340952174603 29 668 30 623 31 593
2661 -0.11795832838478024 1.7173081246157229 0.88910140587394793 226 147 146 0.13088659019620738 16 945 15 802 14 320 13 352 10 339 9 333
5146 0.020501026392266343 1.8029455386250546 0.91159408182729063 121 35 25 0.14991233222510836 1 598 37 598 36 1312 34 1250 35 1285
2453 -0.060859239340850524 1.5118650935278193 0.74543226669320672 255 244 134 0.17989904309464336 29 431 30 626 31 1191
2455 -0.050500284691448849 1.5404942954977516 0.82885012083023246 246 201 147 1.1477387646102406 29 710 30 647 31 625
3172 -0.085680432894592429 1.9132881564059261 1.1047694900191931 203 133 93 0.45112684280635396 11 151 10 278 8 204 7 331
2456 -0.24433320702458311 1.6154929742820245 0.79538955683203072 56 55 100 0.14574837430156118 29 723 30 654
2665 -0.1280511447425571 1.9446293425289016 1.0917187669716606 20 22 43 1.9063090766484987 19 935 20 1162 18 1023 17 743 18 1027 16 830 15 750 20 357 18 327 17 911 14 690 13 252 12 568
2457 -0.011352248931411667 1.5607598038115189 0.85345186211580071 200 128 125 0.73766779646823522 29 738 30 678 31 663 32 680
3182 -0.2077499200646116 1.983968648287042 0.9220888012938071 95 96 146 0.43560782229802841 12 250 10 423 9 301
2458 -0.031109916109876519 1.5934261351328731 0.76658061431096747 172 120 24 0.34086927897335573 29 751 30 679 31 657 32 667
3691 0.21168132993554181 1.8627835614447479 0.84146186321961514 230 158 145 0.25839197697739835 8 816 7 883 6 1236 5 1236
2459 -0.024283649420649863 1.5955000116563796 0.77427254190213257 254 227 158 0.22344378839491619 29 757 30 692 31 417
2460 -0.0078109171171727408 1.581785954003635 0.84112812442911844 155 83 26 0.073026022114890662 29 767 30 704 31 682
2669 -0.064901639641517309 1.7868274503241364 0.81601797960701439 217 184 99 1.4775669910077895 29 4 30 7 28 4 32 11
2462 -0.007251324447540561 1.5930755560952774 0.83540033230719157 141 72 20 0.19067216369027654 29 786 30 719 31 700
2464 -0.0075131443293105053 1.592703684300258 0.89593406017684041 192 121 128 0.19619184089169223 29 802 30 739 31 1202 33 743
2609 -0.10003612275365661 1.7634772384651085 1.0024076808196876 175 104 97 1.505114111526874 16 812 15 378 12 616 13 657 11 401 10 961
2465 -0.025680357563180243 1.6503542291744333 0.77697315467487738 255 243 167 0.18429657994604431 29 845 30 771 31 732
2768 -0.11985138815673585 1.7163846219439303 0.86410319247980094 139 67 70 0.051070602474687685 15 145 14 140 12 353 13 151
3126 -0.17653042202934899 1.8935036049736875 0.91948091573113422 200 126 120 0.048397122501090753 12 678 11 737 10 1016 9 858 8 866
2466 0.0043837605531662606 1.6733851505988548 0.84920932770918856 245 205 157 0.11729504172403658 29 893 30 818 31 794
3635 -0.055094659211162807 1.6124257759394778 0.9238220586352679 78 27 24 0.32467002415078722 8 437 7 457 6 488
5168 -0.087227884269940631 1.9311742093941509 1.1415052460166888 54 41 74 1.343300018191399 36 32 34 29 35 33 33 34 32 35
2467 0.022922390617205714 1.6887180592384481 0.8574694158935996 106 31 23 0.29133516050966685 29 1366 30 840 31 196
3794 0.18302303272039433 1.9042238542346281 0.86703137592559298 132 48 48 0.52990025138017449 7 496 6 539 5 555 4 652 3 333 2 232 37 253 1 253 36 261
2468 0.013969358141778495 1.7240284602417304 0.86267993940752141 203 165 104 0.11255493111932598 29 936 30 865 31 847
2613 -0.18268021514558527 1.4585492326301599 0.7643245234663294 185 136 135 0.066998708281470185 16 303 15 445
3287 -0.10014326825891684 1.6297011640910435 0.87162623884159907 110 54 64 0.165182650372418 10 201 9 253 8 282 7 187
2469 -0.10324673770017352 1.7864532451889128 0.80465979603248339 231 187 137 1.8261028382145388 29 957 30 878
2772 -0.23745591147344369 1.9650233472235716 0.96045002939015156 215 153 110 0.65653984539580512 15 769 14 174 13 195 12 219 11 262 10 428 9 933 8 953 7 315 6 354 5 1021 4 779
2473 0.22352492088907239 1.9252256798312259 0.84872827290401442 168 92 39 0.32156287339290124 28 869 30 976 31 1031 32 922
2776 -0.23830721762728116 1.9683111615306632 0.97340923589516115 57 23 55 2.01927340306902 15 773 14 214 13 110 16 125 12 116 11 146 10 277 9 341 8 960 7 1049 6 1095
3134 -0.12886772684593259 1.6385545690180534 0.98603296423801001 156 73 47 0.58221166072194985 12 838 11 815 8 1181
2474 0.34464500371946971 1.9438367798429985 1.1770141719916645 134 139 205 0.10010330290606013 28 951 30 1032 31 1098
3643 -0.10183754053822476 1.6649484731128532 1.0273724572649598 145 73 65 1.2440675192175963 8 1066 9 494 7 511 6 1167
2621 -0.11514774633344269 1.5990287300824968 0.79451476209710481 250 208 199 0.6891755608312542 16 620 15 520 14 466 13 463 12 474 11 494 10 602
3295 -0.1963388547668298 1.9710105212865188 0.99550830570482451 29 26 50 0.32724814879480679 10 764 9 311 8 228 7 245 6 178
2477 0.27852758268436811 1.8301530553096437 0.77251184289469321 227 172 67 0.21113925053910101 29 1247 30 1084 31 942
2780 -0.18455412992985518 1.4472165929651906 0.77800937444627349 221 145 122 1.7587944229402372 15 441 14 251 13 403
2478 -0.13898025041285209 1.9773280060062484 0.93524487862106942 63 35 29 0.35572605336730523 29 1026 30 1113 31 953
2479 0.018489379646690909 1.8179320742721521 0.87185534907751949 143 62 20 0.20328775441588368 29 1289 30 1155 31 1105
3132 -0.11230521411421947 1.9129918179338852 1.102191880962953 255 245 221 0.094028373133557108 12 258 11 777 10 894
2481 0.0025079360941884766 1.7948011905234738 0.96623741679171493 142 95 84 0.19418345739163229 29 1309 30 1164 31 1104 33 1185 35 1265
3078 -0.22091724589332309 1.9510635272713845 0.98966756464291539 184 110 64 0.5101056531997199 12 260 13 250 11 148 10 276 9 309 8 567 7 248 6 256 5 194
2484 0.0074402431213431387 1.7787997242903624 0.96046354102381637 177 126 109 0.11261580570172698 29 1329 30 1187 31 1127 33 1195 35 1284 32 1113
2565 -0.15108055586661265 1.8069011826432468 0.85186697492837127 237 164 155 0.24191247581012518 17 768 16 869 15 617
2485 0.0008293340755385814 1.7262450412356187 0.94242147717811164 141 73 27 0.079025959099771281 29 955 30 1227 31 722
2487 -0.042499532513357495 1.6369606032441937 0.75798668336404562 146 123 78 0.7449291808414461 27 201 29 815 25 1311 26 1272 30 737
3076 -0.11198781986037705 1.6055055322830902 0.83069920494007876 255 254 246 0.29421161323729345 12 92 11 126 10 156 9 267 8 158
2488 -0.028929647590188848 1.6861898193260414 0.78709756769598493 123 51 18 0.78010879450590975 25 659 24 405 23 1291 26 433 27 442 28 630 30 808 28 1253 29 1363
2569 0.15848431924123843 1.9226494915306009 0.86217991785432557 114 49 40 1.186662520008638 17 444 16 934 15 356
2489 0.13561459174984902 2.101470679647178 0.86333318549717553 72 77 130 0.9475725838461001 30 1045 24 1376 25 1119 23 469 26 1562 28 981 31 1088 32 1065
3086 -0.10891212695637716 1.9158515300093466 1.1491288433240283 74 45 98 0.17356803880378854 12 264 11 269 10 446
2490 -0.1217019368130542 1.8001125861285445 0.81407357296704741 237 191 121 2.7082120113300663 28 1339 30 481
3595 0.15560448070212682 1.9819385740672719 0.93859213627903626 238 178 115 0.31643477932864983 8 173 7 164 6 272 5 200
2492 -0.045588256937072205 1.9155097676818396 1.0627571268545446 110 70 67 1.3909183485998469 16 8 15 8 14 12 13 9
2573 -0.094782752089985892 1.7315108113202811 0.94273873756211646 89 29 26 0.35668020319655397 16 413 15 363
2494 -0.058805042123208126 1.8506102640650088 0.97475276485008788 112 121 191 1.8527119746485825 17 51 16 24 15 23 14 44
2495 -0.2264832671673582 1.9527025539032856 0.97862877741096876 255 255 254 0.30231812093414562 17 24 16 28 15 31 14 27 13 29 12 25 11 33 10 36 9 31 8 43
3084 -0.18822021783606818 1.9464013523285779 0.95369791335553422 179 106 84 0.41899448640071457 12 709 11 255 10 421 9 299 8 552 7 572 6 341
2496 -0.24567458277531987 1.9937335423227454 0.94891408708152702 41 46 83 1.4414618545353004 17 27 16 36 15 34 14 28 13 30
2641 -0.10308242969490146 1.7805937624659041 0.98401045427640943 205 137 125 0.34049700419600482 16 867 15 626 14 713 13 659 12 619 11 676 10 958
3878 -0.045489360167410148 1.7177693812862305 0.97591264566770886 239 176 135 0.11187937917843631 7 1175 6 1182 5 1210 4 1326 3 1346
2498 -0.12710567931296216 1.6397554081399097 0.99243422033199225 87 56 41 0.5207107028507526 17 113 16 70 15 56 13 61
5200 -0.1912337130548605 1.4299703634493171 0.79867237226357801 222 168 121 1.3730662561214906 2 450 34 414 35 591
2499 -0.15262665392952796 1.4252198929916458 0.7932429428698563 247 193 132 1.0412036563420426 17 138 16 83 15 44
2500 -0.16018373001395936 1.4353990057942272 0.74120010808211678 242 176 100 0.2111749458803385 17 91 16 93 15 95 14 74
2645 -0.12284068759403317 1.6325857846634535 0.77314976778190669 45 26 22 0.54759043815721586 16 751 15 663 14 478 12 307
2501 -0.083434114060584499 1.9138796672332066 1.0889374485217855 231 166 146 0.53154182536659911 17 74 16 94 15 92 14 95
2504 -0.085892133646966684 1.8615680039780018 1.060248383863825 122 55 56 0.34421651553331983 17 64 16 115 15 60
2649 -0.060149631186979455 1.9164242427949909 1.0313211916035872 113 116 166 1.3857963281198495 16 466 17 294 15 701 14 187
3886 -0.23945153740901276 1.6181213320631962 0.79653597303224521 191 104 66 0.25435177279134441 7 737 6 1261 5 749
2505 -0.018072139942227502 2.0027788864081986 0.50001181656299065 123 131 188 3.2222217217864815 17 121 16 120
3166 -0.21754279190101719 1.6797155811870805 0.79228899325355318 101 68 51 0.29959178430045602 11 349 10 209 9 252 8 424 7 442
4908 -0.082190559770340954 1.9107322179921571 1.1417599226252695 199 137 124 2.0589545006457075 5 1146 4 941 3 977 2 1306 37 903 5 1149 4 942 3 979 2 1398 1 903 36 1322 34 1073 35 1097
2510 -0.15430480048142475 1.4821328753795306 0.81106079808653708 150 55 56 2.1174069278294767 17 199 16 186 15 269 13 414 14 415
2511 -0.15320333250770155 1.4158886436922871 0.77778699405497043 184 43 26 0.99117451463080475 17 489 16 194 15 102 14 75 13 54 12 56 11 46 10 42 9 37 8 54 7 45 6 48 5 46 4 62 3 60 2 68 37 103 1 103 36 683
3164 -0.1629249646257141 1.4828865802166959 0.81622906062211997 255 246 237 0.39680991385458148 11 224 10 171 8 368 7 393 6 430 5 441 4 1027
3885 -0.032254113086095625 1.5487899435088446 0.83744472300603034 253 218 134 0.86752234355793345 8 678 6 1257 5 733 4 1082 3 480 2 434 2 751 37 1045 1 1045
2512 -0.14155083059729437 1.4063722473352285 0.76671051243890975 255 250 174 0.48083421175547086 20 145 16 196 15 189
2721 0.018257552654054165 1.7452320633912672 0.86606643934138205 185 147 101 0.17448008377441959 30 896 31 695 32 837
3894 -0.19692314531646757 1.4373162998833915 0.77569621502531982 86 82 116 0.028081785345969904 6 624 5 630
2514 -0.13188240285768574 1.9398061984586945 1.0970974810333256 24 26 46 0.8050476482077713 17 972 16 262 15 226 14 689
3747 0.041996821184247177 1.907379422120826 0.94362412347996716 247 202 118 0.36589616275789927 7 98 6 196 5 168 4 150 3 147
2515 -0.40308014596419189 2.0914954861462927 0.78294766926020021 136 140 208 0.21540843073182636 17 746 16 268
2516 -0.11080550501001886 1.9245243495250992 1.1242803306287505 255 255 254 0.43854464373985153 18 1004 16 281 15 741 14 208 13 248 12 263 11 265 10 440 9 331 8 320 7 343 6 1194
2725 -0.01129805744786601 1.6002684826935716 0.86262475222662949 195 141 104 0.1877035237052177 30 736 31 718 32 184
5210 -0.072677018012690706 1.651693282768445 0.98539575848050021 119 124 184 0.489731832449608 36 566 34 488 35 867 33 456 32 803
4907 0.12905176817686612 1.9566297724511645 0.91444534384935472 246 209 153 0.51793880821068794 3 1100 2 1136 37 794 5 586 4 291 3 151 1 794 36 793
2517 -0.14687709336501073 1.4300043870524426 0.73999070638201869 227 165 104 0.35988123907512037 17 336 18 364 16 291 15 417
2519 -0.15152250194577982 1.4748608818983999 0.74277573678419395 103 43 54 0.31137711938366552 17 353 16 301 15 264 14 398
3893 -0.19617421170218 1.4367308096605456 0.77278622758667259 87 93 126 0.66033782404994734 6 67 5 137
2520 -0.11275052339850715 1.5778635993116243 0.82733652410414138 228 172 164 1.1876213456381561 17 378 16 342 13 310
2729 -0.0034134680403304562 1.7237118476445275 0.94146421252487611 221 170 104 0.13224248601756616 30 881 31 839 32 872
3902 -0.044842662917704577 1.5830562665548944 0.90242092415880393 189 115 99 0.90181815570175949 6 24 5 33 4 39
4927 -0.084735403596502959 1.9170346177008519 1.0998524520066619 148 86 48 0.0057134812436718148 2 1251 37 852 1 852
2521 -0.11733009758285846 1.604573120159932 0.77021810477124286 252 192 173 0.46994517201488778 18 698 16 345 15 291 12 300 11 482 10 590
3246 -0.10511884296960304 1.5295607254489536 0.79854183763353126 119 65 76 1.8078022874922919 10 5 9 5 8 6
2526 -0.098930405507754865 1.7557917841556601 0.98793430065973109 148 71 77 2.0202272963891166 17 894 16 426 15 377 12 379 11 657 10 391 9 499
2527 -0.099533443551093739 1.8064514834070349 1.0066174989098697 124 56 63 0.19619278081343214 17 790 16 441 15 390 14 354 13 221
3244 -0.056881849127463822 1.5850633489818973 0.78543288510197973 0 0 0 0.38104449893544945 11 6 13 5
3901 -0.17768102653830423 1.4219705224681265 0.75328018306536448 95 102 133 1.8038553209021355 8 27 5 24 4 31
2528 -0.097362298759233148 1.9086615498404484 1.1399704152682353 255 251 240 0.54784037086749793 17 900 16 478 15 195
2673 -0.01657901746211074 1.8488299388270764 1.0386065011209191 156 100 44 1.4032732853098493 30 26 31 22 32 17
2529 -0.14689263088444177 1.4194075154810011 0.73904371120966039 252 216 136 0.19632261781345053 17 477 16 487 15 414
3190 0.28020856200731592 1.8199790622917593 0.77956217934870176 244 180 138 0.33038371639203484 11 477 10 492 9 173 8 292 5 408 4 243 3 224
2530 -0.15286778144527322 1.4137067599650841 0.75218730480513518 253 211 119 0.50438505531268785 17 481 16 489 15 251 14 233 13 271 12 206
3699 0.17593868904109683 1.9952212145824098 0.94076834816135746 176 110 108 0.58909659371743106 8 862 7 941 4 869 3 1204 2 1245
5232 -0.016844572476928783 1.5822067279426981 0.90823305851845804 167 71 78 0.20621087475531144 36 1096 34 711 35 764
2531 -0.085452087141647287 1.4662232062650917 0.73261391279329302 79 79 107 1.0318526887119974 17 337 16 496
2532 -0.12217926663020499 1.524241069780875 0.76364656775712392 151 90 94 0.16516352532377798 17 560 16 553 15 463
2533 -0.1237994925488784 1.5242375096785172 0.77888890139503164 141 87 92 0.25379269777191471 17 565 16 558 15 472
2535 -0.1161773243118621 1.5419188325226878 0.7773592466795568 158 92 94 0.12426046792103915 17 997 16 573 15 480 14 428
2536 -0.085392109088332654 1.5975846075123072 0.7370292749691435 253 212 138 0.18374768815330517 17 371 16 586 15 491 14 434
2681 -0.011883285933348526 1.5883820439279865 0.87273785527212722 189 119 120 0.097650096262128741 30 115 31 103
2537 -0.089935392436919323 1.5669642849126486 0.837912448850619 249 188 172 0.41242453096268861 17 602 16 599 15 507
3198 -0.19761494425647072 1.4300379075558778 0.79602179106856574 249 185 136 0.2468312189171209 11 443 10 541 9 565
2538 -0.020213659624228591 1.5828995168287401 0.91443103499559408 223 165 141 1.0487610796536047 17 608 16 604 13 476 12 491 10 663
3707 0.064140832620638411 1.9637650176262711 0.97685300698367938 222 152 118 0.4579385873967472 8 1185 7 995 6 1074 5 1076 4 868 3 1179 2 1194 37 837 1 837 36 832
2540 -0.11217891438999977 1.5860944415791114 0.79409101745270716 176 114 102 0.1523587492807422 17 612 16 610 15 512 14 456
2685 0.026671950697010161 1.7334868161426338 0.83159812381976561 243 194 97 0.29924692690431393 30 103 31 130 32 98
2542 -0.053826702560871291 1.6060795545700852 0.91207904940112572 75 32 20 0.058070911818771082 17 635 16 638 15 541
2543 -0.12342773293264844 1.6268881690353161 0.77687677187136472 217 158 157 0.25886720798905816 17 646 16 641 15 530
3196 -0.17345944706187211 1.4242706571801518 0.79384170947601018 249 193 115 0.22558741912719077 11 431 10 530 9 558 8 601 7 615 6 1250 5 633
2544 -0.12363292735886387 1.6270842397061276 0.79681917400862134 254 233 225 0.28929997119695683 17 652 16 653 15 542 14 492 13 501 12 498 11 521
2625 -0.14154401610605805 1.6416504772105003 0.75014696653773871 254 230 154 0.27063398880662687 16 660 15 543 14 488 13 490 12 483 11 509
2545 -0.12084224763429051 1.6263772580570237 0.81026901486342073 255 246 240 0.19018558823018469 17 653 16 658 15 549 14 497 13 509 12 507 11 532 10 649 9 666
2546 -0.12499340260943032 1.6311562589310542 0.79547766826923505 212 174 169 0.084630771530700533 18 726 16 659 15 548 14 496
3651 -0.1589743549771217 1.9116797314585243 0.94318132068655769 79 33 41 0.454872908321025 8 901 7 556 6 576 5 580 4 694
2547 -0.063796368533482167 1.6264552076307821 0.94024892770102886 241 190 142 0.12909198243126621 17 666 16 675 15 580
2548 -0.12024981599454303 1.6519682140193275 0.82179926860988306 255 245 237 0.094882725597110973 17 677 16 680 15 577 14 523 13 539 12 528
2629 -0.12247007861089002 1.6452490383517586 0.81459496509387619 255 254 252 0.065026948022955125 16 673 15 566 14 514 13 528 12 827
5242 -0.046665919746744229 1.6312798276826677 0.97459843732782503 136 81 85 0.36401400108484844 36 1200 34 789 35 848
2549 -0.12295991056121683 1.6584043129499551 0.80352163548823374 251 221 227 0.12604374722350711 17 681 16 681 15 574 14 519 13 531 12 524
2551 -0.1106388003632227 1.6319197203091753 0.99220798777155517 218 148 109 0.13203406672842474 17 713 16 695 15 346 14 312 13 149 12 155
3140 -0.034298980459175787 1.5474460702682002 0.86685967342904802 230 159 158 0.58099716135912094 12 456 11 475
2552 -0.10073829722550033 1.8198869338948578 1.0114264133374427 106 38 38 0.17538602084557153 17 806 16 728 15 651
2633 -0.11539861112828233 1.6691212155283321 0.81178093288661091 98 49 59 1.0217607900752159 16 688 15 587 14 623 12 333 11 342
2553 -0.099704803547016621 1.846840590442431 1.0299711518821779 170 109 99 0.15642174117299409 17 828 16 747 15 681 14 228 13 705 12 681
3150 -0.20515365235792377 1.9813580553647052 0.92109053716031053 108 113 168 0.40266971400322438 11 55 10 53 9 44 8 67
2554 0.12419251115855227 2.1040893077788216 0.8438860806140388 128 131 181 0.12303886517102025 17 869 16 768 15 678
2556 -0.18069423658366851 1.8733610638984231 0.90066033901874365 210 134 125 0.19043492677763699 17 859 16 770 15 688 14 633 13 700 12 657 11 717
2558 -0.1880262606709705 1.910958841447008 0.91875411759430881 214 146 139 0.42938043015091587 18 999 16 785 15 705
2559 -0.19061650338878849 1.9144520475532805 0.91192035844085151 189 119 114 0.25852587209094691 17 899 16 788 15 706
3148 -0.099328987359057416 1.5725451284159062 0.84558109294479566 186 119 110 0.22450749308100582 11 69 10 45 9 40
2560 -0.18900088526236516 1.9187007070464159 0.91819109214780026 200 130 120 0.35877677023441773 17 902 16 792 15 710 14 650 13 725 12 690
2563 -0.12848006937465364 1.9404515971325969 1.1067293794789237 32 30 60 0.11186417641432077 17 714 16 831 15 751
3506 -0.22114758512282556 1.6824282552222243 0.79394989110480951 111 118 172 0.19840543053165674 9 753 8 784 7 360 6 472 4 1145 5 820
2564 -1.2013619539203586 1.4459222907910125 0.71384458173001542 114 121 194 0.57237660437584847 17 744 16 852
4023 0.068649521666129018 1.9572689145539586 0.96503187255697287 237 162 130 0.13955765550566368 8 895 5 1045 4 839
2566 -0.17363504417455297 1.8174709971039369 0.84023526405109639 202 127 124 1.7453546526282728 17 791 16 882 15 630 12 138 13 121
4017 0.16563504456151887 1.9673028630094231 0.92674890799552301 152 60 54 0.24845382679213338 8 1028 5 987 4 524
2567 -0.10223706961560365 1.7582895673938654 0.97004892078109739 139 57 65 0.25212326230485693 17 920 16 892 15 829
2570 0.25806490037583291 1.8565594490781288 0.78258750599843407 118 104 137 1.7756146751622124 17 400 16 967 15 160
2571 -0.27155709617255647 1.6724346730032149 0.79850059183901279 111 81 96 1.5947672609586612 25 82 21 108 24 95 25 1374 23 103 23 1502 22 109 27 85 28 129 20 104 18 92 29 334 16 101 17 165 16 155 15 139 13 70 14 64
3514 -0.093383176057147257 1.7748559064251068 1.0102647986588289 202 128 120 0.099382639348911991 9 815 8 843 7 1119
2572 0.14161306395320436 1.9682107967671494 0.893788426354022 161 104 70 0.49400531369659095 18 1072 17 766 16 750 21 395 22 849 19 266
4031 0.055792072633760285 1.959930327487718 0.99064216205751299 237 168 135 0.93889151729443288 6 1088 5 1087 4 1193 3 37 2 57 37 846 1 846
2575 -0.12715945391905847 1.4382028640792479 0.76487133078510394 172 72 61 1.8589505118159577 16 1 15 5 14 2 13 2 12 1 11 3 10 1 9 1 17 1
2576 -0.20651085753035459 1.9729145747195271 0.96111594880200002 255 255 253 1.5435230836340366 16 15 17 11 15 10 14 11 13 10
2579 -0.19532734015908959 1.9541582594156957 0.93501737061513557 186 110 95 1.0124322296345807 16 38 15 39 14 34 11 39
3458 -0.094372528753664087 1.6776675831769243 0.89156908890136266 95 32 37 0.16288939344901424 9 798 8 449 7 465 6 872
2580 -0.11853334506743152 1.4246323913463317 0.75044586718678064 252 224 137 1.1189683373454475 16 43 15 42 14 29 12 16 11 24 10 26
3975 -0.19808023312958953 1.4328600387594177 0.79301991631369928 225 161 124 0.55792189443229923 6 231 5 638 4 982 37 953 1 953
2581 -0.094538048532766192 1.6343734821725155 0.87668641495699584 133 86 96 1.2759322835586475 16 65 15 50 14 46 13 44 12 39 11 44 10 29 9 35 8 52
2582 -0.17112667067793733 1.4355558549669574 0.75526905903827002 238 173 106 0.39497589875039907 16 127 15 78 14 82 13 78 12 124
3969 -0.22225545936977117 1.9600912563297661 0.94292877434842481 133 79 45 0.039669095545370535 6 1053 5 602 4 410
2586 -0.12823599754588624 1.8238104761527516 0.89891237886834907 189 120 115 1.8060646442042583 16 438 15 125 13 654
2587 -0.11846343897273587 1.6476375211445322 0.99391051747740911 115 120 172 1.4342106457694979 15 142 14 319 13 778
3466 -0.064748840248741238 1.6007629839070885 0.89895106460136587 55 30 24 1.1946403918369863 10 680 8 522
2588 -0.1195757605336065 1.6410840744529573 0.82315600046450754 255 242 238 0.084637969047025863 16 159 15 154 14 152
3983 -0.14088794414901851 1.4585427209444561 0.82329027985799164 139 62 64 2.1779777143930761 6 1255 8 180 5 675
2590 -0.11275265158187818 1.9239283868293409 1.1312171888608034 21 23 20 0.94849426645121493 16 258 15 193 14 179 13 194 12 213 10 153 9 176 8 196 7 234 6 241 5 389 4 323 3 974 2 417
3977 -0.10184062457481308 1.4418781518540347 0.79408288210593025 252 211 187 0.15896612220650533 6 631 5 643 4 989 3 643 2 654 37 964 1 964 36 958 34 573
